915.9 309.1 81.9
911.8 302.0 81.8
911.8 296.5 81.8
895.7 285.1 81.1
895.7 279.6 81.1
891.6 267.4 80.9
891.5 251.2 80.9
887.5 244.6 80.7
903.5 244.1 81.4
907.5 239.8 81.5
903.4 227.7 81.3
915.4 225.5 81.8
903.3 216.7 81.3
903.3 211.2 81.3
903.3 205.7 81.3
911.3 202.2 81.6
911.2 196.7 81.6
903.2 189.3 81.3
915.2 186.5 81.8
907.1 179.2 81.4
919.1 176.1 81.9
915.1 169.7 81.8
1002.6 -942.9 84.2
982.4 -974.9 83.3
1025.7 441.1 80.1
1013.6 428.9 79.7
1021.6 426.4 80.0
1025.5 421.9 80.1
1029.5 417.4 80.2
1017.4 405.4 79.8
1025.4 402.7 80.1
1025.4 389.9 80.1
915.9 320.3 76.4
903.8 304.5 76.0
911.8 302.0 76.2
911.7 296.5 76.2
899.7 286.5 75.8
899.6 281.1 75.8
895.6 274.2 75.7
899.6 270.2 75.8
903.5 255.1 75.9
899.4 248.4 75.8
903.4 244.1 75.9
899.3 232.0 75.7
895.3 225.4 75.6
899.2 215.6 75.7
903.2 211.2 75.8
899.2 204.7 75.7
907.2 201.2 76.0
903.1 194.8 75.8
907.1 190.2 75.9
903.1 183.8 75.8
915.0 175.3 76.2
919.0 170.5 76.3
927.0 166.5 76.6
926.9 160.8 76.6
1009.0 157.1 79.3
1008.9 150.8 79.3
1008.9 144.5 79.3
1015.9 139.2 79.5
1015.8 132.9 79.5
1023.8 127.5 79.7
1015.8 120.2 79.5
1015.7 113.9 79.5
1015.7 107.5 79.4
1015.6 101.2 79.4
1015.6 94.9 79.4
1019.6 88.8 79.6
1015.5 82.2 79.4
1019.5 76.1 79.5
1015.5 69.5 79.4
1193.7 -932.5 84.2
1185.6 -940.4 84.0
1166.6 -945.0 83.3
1162.5 -948.6 83.2
1142.6 -936.4 82.5
1142.6 -943.7 82.5
1130.5 -946.3 82.1
1119.6 -942.4 81.8
1099.6 -929.0 81.1
1099.5 -943.1 81.1
1037.5 -937.6 79.1
1025.5 -943.7 78.7
1005.5 -940.0 78.0
1002.5 -942.9 77.9
994.5 -946.0 77.6
1021.5 439.1 73.6
1021.5 432.8 73.6
1017.5 424.5 73.5
1029.5 423.8 73.8
1013.3 403.6 73.4
1029.3 404.5 73.8
1021.2 388.2 73.6
915.8 314.7 70.8
911.7 307.6 70.7
907.6 295.0 70.6
899.6 281.1 70.3
907.5 278.4 70.5
903.5 271.6 70.4
899.5 264.7 70.3
899.4 259.3 70.3
903.4 255.1 70.4
903.4 249.6 70.4
903.3 244.1 70.4
907.3 239.8 70.5
895.3 230.8 70.2
895.2 225.4 70.2
903.2 222.2 70.4
899.1 210.2 70.2
895.1 203.7 70.1
899.1 199.3 70.2
891.0 191.9 70.0
899.0 188.4 70.2
899.0 182.9 70.2
898.9 177.4 70.2
902.9 172.8 70.3
918.8 159.3 70.7
918.8 153.7 70.7
1004.7 118.9 72.8
1015.6 113.9 73.1
1011.6 107.1 73.0
1015.6 101.2 73.1
1015.5 94.9 73.1
1019.5 88.8 73.2
1015.4 82.2 73.1
1015.4 75.9 73.1
1015.4 69.5 73.1
1513.6 -957.2 84.7
1420.6 -946.0 82.3
1396.6 -946.0 81.7
1318.6 -936.4 79.7
1295.5 -942.7 79.1
1279.6 -937.4 78.7
1271.6 -938.8 78.5
1263.5 -948.3 78.3
1232.5 -936.8 77.5
1185.5 -940.4 76.3
1162.5 -941.1 75.7
1150.5 -936.8 75.4
1138.5 -932.4 75.1
1142.5 -943.7 75.2
1111.5 -934.2 74.4
1103.5 -933.1 74.2
1095.5 -938.9 74.0
1084.4 -941.3 73.7
1060.5 -936.2 73.1
1037.4 -937.6 72.5
1025.4 -943.7 72.2
768.6 656.1 63.0
1029.5 443.1 67.4
1021.4 432.8 67.3
1021.4 426.4 67.3
1021.3 420.0 67.2
1021.3 407.3 67.2
1025.2 402.7 67.3
1029.2 398.1 67.4
915.7 320.3 65.2
915.7 314.7 65.2
907.6 306.0 65.1
907.6 300.5 65.1
911.6 296.5 65.1
903.5 282.5 65.0
903.5 277.0 65.0
899.4 270.2 64.9
891.4 262.0 64.7
899.3 259.3 64.9
899.3 253.8 64.9
899.3 248.4 64.8
895.2 236.3 64.8
895.2 230.8 64.8
891.1 224.3 64.7
903.1 222.2 64.9
895.0 209.1 64.7
895.0 203.7 64.7
899.0 199.3 64.8
895.0 192.9 64.7
894.9 187.4 64.7
902.9 183.8 64.8
898.9 177.5 64.8
894.8 171.2 64.7
898.8 166.5 64.7
910.7 152.3 64.9
914.7 147.4 65.0
898.6 139.3 64.7
914.6 130.7 65.0
1008.5 106.8 66.6
1011.5 100.8 66.7
1023.4 95.6 66.9
1015.4 88.5 66.8
1019.3 82.5 66.8
1015.3 75.9 66.7
1015.3 69.5 66.7
1607.5 -949.7 76.2
1505.4 -951.4 74.4
1427.4 -951.5 73.0
1341.5 -937.9 71.4
1334.4 -949.8 71.3
1310.4 -938.4 70.9
1295.4 -942.7 70.6
1271.4 -938.8 70.2
1263.4 -940.0 70.0
1263.4 -948.3 70.0
1232.4 -936.8 69.5
1232.4 -944.8 69.5
1224.3 -953.5 69.3
1209.3 -955.3 69.0
1193.3 -948.0 68.8
1162.4 -941.1 68.2
1107.3 -944.3 67.2
1095.4 -938.9 67.0
1084.3 -941.3 66.8
1052.4 -927.6 66.2
1041.3 -942.0 66.0
1025.3 -943.7 65.7
1005.4 -933.7 65.4
994.3 -933.6 65.2
990.3 -941.3 65.1
982.2 -950.3 65.0
978.1 -970.0 64.9
1021.3 426.4 60.9
1025.2 415.5 60.9
1017.2 405.5 60.8
1025.1 402.7 60.9
1017.1 392.8 60.8
919.6 321.9 59.7
911.6 313.1 59.6
907.5 306.0 59.5
907.5 300.5 59.5
903.5 293.5 59.5
903.4 288.0 59.5
899.4 281.1 59.4
899.4 275.6 59.4
891.3 267.4 59.3
895.3 263.4 59.4
895.2 252.5 59.4
895.2 247.1 59.3
891.2 240.5 59.3
899.1 237.5 59.4
891.1 229.7 59.3
895.1 225.4 59.3
903.0 222.2 59.4
884.0 211.6 59.2
894.9 203.7 59.3
890.9 197.3 59.2
886.9 191.0 59.2
886.8 185.6 59.2
890.8 175.7 59.2
886.7 169.5 59.2
898.7 166.6 59.3
890.7 159.6 59.2
890.5 138.0 59.2
890.5 132.6 59.2
902.5 123.5 59.3
914.4 114.0 59.4
1015.3 88.5 60.4
1015.3 82.2 60.4
1015.2 75.9 60.4
1607.4 -938.9 65.4
1599.4 -944.3 65.3
1545.3 -949.3 64.7
1420.3 -946.0 63.4
1326.3 -943.1 62.4
1271.3 -938.8 61.9
1263.3 -940.0 61.8
1232.3 -936.8 61.5
1224.3 -937.6 61.4
1216.2 -946.1 61.3
1209.2 -955.3 61.2
1185.3 -940.4 61.0
1162.3 -933.6 60.7
1150.3 -936.8 60.6
1134.3 -928.4 60.4
1138.3 -939.7 60.5
1123.2 -946.4 60.3
1111.2 -948.4 60.2
1095.3 -938.9 60.0
1084.2 -941.3 59.9
1076.2 -939.7 59.8
1056.3 -931.8 59.6
998.2 -938.2 59.0
990.2 -941.3 58.9
978.2 -945.5 58.8
1021.2 432.8 54.5
1021.2 426.4 54.5
1025.2 421.9 54.5
1025.1 415.5 54.5
1021.0 400.9 54.5
1021.0 394.6 54.5
1021.0 388.2 54.5
911.5 313.1 54.1
899.4 292.0 54.0
899.3 286.6 54.0
899.3 281.1 54.0
895.3 274.2 54.0
895.2 268.8 54.0
895.2 263.4 53.9
895.2 258.0 53.9
895.1 252.6 53.9
891.1 245.9 53.9
887.1 239.3 53.9
891.0 235.1 53.9
887.0 228.5 53.9
891.0 224.3 53.9
895.0 220.0 53.9
890.9 213.5 53.9
890.9 208.1 53.9
894.9 203.7 53.9
886.8 196.3 53.8
883.8 190.3 53.8
890.8 186.5 53.8
883.7 179.6 53.8
883.7 174.2 53.8
879.6 168.1 53.8
879.6 162.8 53.8
890.6 159.6 53.8
898.6 155.7 53.8
886.5 142.7 53.8
886.5 137.3 53.8
886.4 132.0 53.8
894.4 127.8 53.8
886.3 115.9 53.7
898.3 112.0 53.8
918.3 108.9 53.8
906.2 96.5 53.8
918.2 92.1 53.8
1015.2 82.2 54.1
1015.1 69.5 54.1
1443.2 -944.6 54.0
1427.1 -951.4 54.0
1380.2 -942.5 53.9
1373.2 -946.0 53.8
1326.2 -943.1 53.7
1295.1 -951.2 53.6
1216.1 -946.1 53.4
1193.1 -948.0 53.3
1170.1 -941.3 53.2
1150.2 -936.8 53.2
1142.2 -936.3 53.2
1138.2 -939.7 53.2
1115.2 -938.2 53.1
1111.1 -948.4 53.1
1099.1 -943.0 53.0
1084.1 -948.2 53.0
1068.1 -944.8 52.9
1045.1 -946.4 52.9
1017.2 -934.6 52.8
1002.1 -942.8 52.8
990.1 -941.3 52.7
977.9 -969.9 52.7
770.5 333.4 49.2
790.5 330.0 49.1
1029.2 436.7 48.1
1017.1 424.5 48.2
1029.1 423.8 48.1
1021.0 413.7 48.1
1016.9 399.2 48.1
903.4 310.0 48.5
899.3 297.5 48.5
895.3 285.1 48.6
895.2 279.7 48.5
899.2 275.7 48.5
895.2 268.8 48.5
895.1 263.4 48.5
903.1 260.6 48.5
895.0 247.1 48.5
903.0 244.2 48.5
887.0 233.9 48.5
890.9 229.7 48.5
886.9 223.2 48.5
898.9 221.1 48.5
886.8 212.4 48.5
894.8 209.2 48.5
890.8 202.7 48.5
879.7 194.6 48.5
886.7 185.6 48.5
879.6 178.7 48.5
886.6 174.9 48.4
879.6 168.1 48.5
883.5 163.6 48.4
886.5 158.8 48.4
883.5 152.9 48.4
883.4 147.5 48.4
898.4 144.8 48.4
894.4 138.6 48.4
883.3 131.5 48.4
883.3 126.2 48.4
886.3 121.3 48.4
894.3 116.9 48.3
890.2 111.0 48.4
902.2 107.0 48.3
898.2 101.1 48.3
902.1 96.1 48.3
898.1 90.2 48.3
902.1 85.1 48.3
914.0 80.6 48.2
1011.1 81.9 47.8
1011.0 69.3 47.7
1599.0 -944.3 43.7
1560.0 -949.4 43.9
1380.0 -951.6 44.7
1349.0 -944.5 44.9
1326.0 -943.1 45.0
1287.0 -944.3 45.1
1271.1 -938.7 45.2
1271.0 -947.0 45.2
1224.1 -929.6 45.5
1224.1 -937.5 45.4
1209.0 -939.6 45.5
1201.0 -947.7 45.5
1185.0 -940.4 45.6
1177.0 -948.0 45.7
1150.1 -936.8 45.8
1146.0 -940.2 45.8
1037.1 -937.6 46.3
1025.0 -943.7 46.4
1009.0 -938.3 46.4
994.1 -933.6 46.5
990.0 -941.3 46.5
978.0 -945.5 46.6
973.9 -965.0 46.6
774.5 331.0 44.7
786.5 332.6 44.5
786.4 328.0 44.5
1020.9 401.0 41.8
907.4 317.1 43.0
903.3 310.0 43.1
899.2 297.5 43.1
903.2 282.6 43.0
895.0 263.4 43.1
903.0 260.6 43.0
895.0 247.1 43.1
894.9 241.7 43.1
890.9 235.1 43.1
890.8 229.7 43.1
883.7 206.3 43.2
879.7 200.0 43.2
886.7 196.4 43.1
883.6 190.3 43.1
883.6 184.9 43.1
883.6 179.6 43.1
883.5 174.3 43.1
883.5 168.9 43.1
886.5 164.2 43.1
886.4 158.8 43.1
886.4 153.4 43.1
883.4 147.6 43.1
886.3 142.7 43.0
883.3 136.9 43.1
890.3 132.6 43.0
883.2 126.2 43.1
890.2 121.8 43.0
902.2 118.0 42.8
890.1 111.0 43.0
894.1 106.1 42.9
894.1 100.7 42.9
898.1 95.7 42.8
906.0 91.0 42.7
914.0 86.1 42.6
1011.0 81.9 41.4
1014.9 75.9 41.4
1007.9 69.2 41.5
1559.9 -949.4 33.4
1294.9 -951.2 36.6
1286.9 -952.7 36.7
1270.9 -947.0 36.9
1224.0 -929.6 37.5
1231.9 -944.8 37.4
1215.9 -946.0 37.6
1192.9 -947.9 37.9
1176.9 -948.0 38.0
1153.9 -940.7 38.3
1145.9 -940.2 38.4
1137.9 -939.7 38.5
1114.9 -938.2 38.8
1106.9 -944.3 38.9
1098.9 -943.0 39.0
1072.0 -935.4 39.3
1052.0 -927.5 39.6
1033.0 -933.1 39.8
1017.0 -934.6 40.0
1009.0 -938.3 40.1
998.0 -938.2 40.2
993.9 -946.0 40.3
973.9 -940.7 40.5
774.4 335.5 40.2
782.4 335.1 40.0
782.4 330.6 40.0
782.4 326.0 40.0
1028.9 430.3 35.3
1032.9 425.7 35.2
1028.9 417.4 35.2
915.4 331.5 37.4
903.3 315.5 37.6
903.2 310.0 37.6
895.2 296.0 37.7
895.1 279.7 37.7
899.0 275.7 37.6
899.0 264.8 37.6
902.9 260.6 37.5
902.9 255.1 37.5
898.9 248.4 37.6
890.8 240.5 37.7
886.8 233.9 37.8
890.7 224.3 37.7
898.7 221.1 37.5
886.6 207.1 37.8
890.6 202.7 37.7
883.6 195.6 37.8
886.5 191.0 37.7
883.5 184.9 37.8
883.5 179.6 37.8
883.4 174.3 37.8
883.4 168.9 37.8
883.4 163.6 37.8
883.3 158.2 37.8
883.3 152.9 37.8
875.3 146.1 37.9
883.3 142.2 37.7
879.2 136.2 37.8
886.2 132.0 37.7
883.2 126.2 37.7
879.1 120.3 37.8
886.1 115.9 37.7
886.1 110.5 37.6
898.0 106.6 37.4
890.0 100.3 37.6
898.0 95.7 37.4
905.9 91.0 37.2
905.9 85.5 37.2
1014.9 82.2 35.1
1014.8 75.9 35.1
1014.8 69.6 35.0
1590.8 -938.8 22.3
1192.8 -947.9 30.1
1149.8 -936.8 31.0
1145.8 -940.2 31.1
1141.8 -943.6 31.1
1114.8 -938.2 31.7
1114.8 -952.5 31.7
1102.8 -947.2 31.9
1051.9 -927.5 32.9
1024.9 -924.3 33.5
1012.9 -930.1 33.7
1008.9 -938.3 33.8
997.9 -938.2 34.0
993.8 -946.0 34.1
973.7 -965.0 34.4
770.4 337.9 35.8
770.3 333.4 35.8
782.3 335.1 35.4
790.3 334.7 35.2
786.3 328.0 35.3
911.3 329.8 31.9
903.0 288.1 32.1
899.0 281.1 32.2
903.0 277.1 32.1
894.9 263.4 32.3
898.9 259.3 32.1
894.8 247.2 32.2
894.8 241.7 32.2
898.7 237.5 32.1
894.7 225.5 32.2
894.6 220.0 32.2
879.6 210.6 32.6
894.6 209.2 32.2
886.5 201.7 32.4
886.5 196.4 32.4
883.5 190.3 32.5
883.4 185.0 32.5
879.4 178.7 32.6
886.4 174.9 32.4
886.3 169.6 32.4
883.3 163.6 32.4
883.3 158.2 32.4
879.2 152.2 32.5
879.2 146.9 32.5
879.2 141.5 32.5
879.1 136.2 32.5
883.1 131.5 32.4
886.0 121.3 32.3
886.0 115.9 32.3
890.0 111.0 32.2
894.0 106.1 32.1
897.9 101.1 31.9
905.9 96.5 31.7
897.9 90.2 31.9
913.8 86.2 31.5
1018.7 76.2 28.6
1149.7 -944.2 23.6
1118.7 -942.3 24.4
774.3 340.0 31.1
786.3 337.2 30.7
794.2 332.0 30.4
899.1 308.4 26.8
899.0 297.5 26.7
898.9 281.1 26.7
898.9 275.7 26.7
902.9 271.6 26.6
894.8 263.4 26.8
890.8 256.7 27.0
886.7 244.7 27.1
894.7 241.7 26.8
902.7 238.7 26.5
898.6 232.1 26.7
890.5 218.9 26.9
886.5 207.1 27.0
879.4 194.7 27.3
871.4 187.4 27.5
879.3 184.0 27.3
879.3 178.7 27.3
875.2 167.3 27.4
883.2 163.6 27.1
883.2 158.3 27.1
879.2 152.2 27.2
883.1 147.6 27.1
879.1 141.6 27.2
879.1 136.2 27.2
883.0 131.5 27.1
879.0 125.6 27.2
883.0 120.9 27.0
885.9 115.9 26.9
882.9 110.2 27.0
885.9 105.2 26.9
889.8 100.3 26.8
905.8 96.5 26.2
901.8 90.6 26.3
1024.6 -943.6 20.5
1004.6 -946.3 21.2
989.7 -941.3 21.8
778.2 328.5 26.5
790.2 330.0 25.9
903.0 315.5 21.1
899.0 308.4 21.3
898.9 297.5 21.3
898.9 286.6 21.3
898.8 281.2 21.3
894.8 274.3 21.4
898.7 264.8 21.2
898.7 253.9 21.2
898.6 248.4 21.2
890.6 240.5 21.6
886.6 233.9 21.7
898.5 232.1 21.2
890.5 224.3 21.5
894.5 220.0 21.4
879.4 210.6 22.0
886.4 207.1 21.7
883.3 195.7 21.8
875.3 188.4 22.1
875.3 183.1 22.1
875.2 177.8 22.1
879.2 173.4 21.9
871.1 156.0 22.3
871.1 150.7 22.2
875.0 146.2 22.1
875.0 140.9 22.1
879.0 136.2 21.9
879.0 130.9 21.9
874.9 125.0 22.0
878.9 120.3 21.9
885.9 115.9 21.6
885.8 110.6 21.6
897.8 106.6 21.0
899.0 319.3 15.9
907.0 317.1 15.5
902.9 304.5 15.6
898.8 297.5 15.8
898.8 292.1 15.8
894.8 285.1 16.0
902.8 282.6 15.6
898.7 275.7 15.8
894.7 268.9 16.0
894.6 263.5 16.0
890.5 235.1 16.2
894.5 230.9 15.9
894.4 220.1 15.9
883.3 206.3 16.5
879.2 194.7 16.7
871.2 187.5 17.0
875.2 183.1 16.8
879.2 178.7 16.6
863.1 164.8 17.4
871.1 161.2 17.0
871.0 156.0 17.0
871.0 150.7 17.0
867.0 144.7 17.2
870.9 140.2 17.0
874.9 135.6 16.8
878.9 130.9 16.6
885.8 121.3 16.2
897.8 117.5 15.6
893.7 111.6 15.8
