497.6 269.8 84.2
503.6 257.2 84.8
507.8 307.5 82.8
493.6 273.9 81.4
499.6 273.8 82.0
510.3 222.0 83.0
510.3 219.5 82.9
510.3 212.0 82.9
512.3 208.0 83.1
522.3 208.4 84.1
516.2 194.9 83.5
526.2 189.4 84.4
530.2 188.7 84.8
509.8 304.2 80.5
509.8 299.2 80.4
503.7 289.2 79.9
495.6 277.9 79.2
507.3 227.7 80.2
509.3 226.4 80.4
516.3 225.6 81.0
512.3 220.7 80.6
510.2 206.9 80.4
512.2 205.5 80.6
512.2 197.9 80.6
520.2 199.5 81.3
514.1 188.8 80.7
507.4 247.7 77.7
510.4 247.2 78.0
503.3 232.6 77.4
510.3 229.6 77.9
505.3 224.0 77.5
509.3 221.4 77.8
512.3 220.7 78.1
509.2 213.9 77.8
510.2 206.9 77.9
507.5 260.1 75.2
503.4 249.8 74.9
505.3 238.9 75.1
503.3 232.6 74.9
510.3 229.6 75.4
510.2 219.5 75.4
507.2 212.8 75.2
628.3 207.7 83.8
624.3 202.7 83.5
628.2 190.7 83.7
622.1 185.1 83.3
630.2 184.6 83.9
622.0 168.2 83.3
622.0 164.9 83.3
619.9 144.2 83.1
621.9 141.4 83.2
625.9 139.0 83.5
619.8 134.1 83.1
623.8 131.8 83.4
625.8 128.9 83.5
627.8 125.9 83.6
617.7 113.6 82.9
621.7 101.0 83.2
619.6 97.3 83.0
625.6 91.5 83.5
619.6 87.3 83.0
621.6 84.2 83.2
623.5 81.1 83.3
619.5 77.2 83.0
611.4 66.4 82.4
501.5 275.4 72.4
501.4 260.7 72.4
501.3 248.5 72.4
507.3 247.7 72.7
510.3 242.2 72.9
505.3 233.9 72.6
505.2 231.4 72.6
626.2 200.1 80.2
624.2 195.9 80.1
630.1 188.0 80.4
626.1 183.1 80.2
628.1 180.4 80.3
624.0 165.5 80.0
623.9 158.8 80.0
623.9 145.3 80.0
623.8 141.9 80.0
629.8 140.1 80.4
623.8 135.1 80.0
619.8 130.8 79.7
623.8 128.4 80.0
625.6 108.5 80.1
627.6 102.1 80.2
621.6 97.7 79.8
623.6 94.6 80.0
621.5 90.9 79.8
621.5 87.6 79.8
625.5 84.8 80.1
629.5 75.1 80.3
613.4 63.3 79.3
507.7 310.0 70.3
505.6 303.3 70.2
509.6 301.7 70.4
501.6 290.1 70.0
499.5 278.7 69.8
503.5 276.9 70.1
503.5 274.5 70.1
501.4 263.1 69.9
501.4 260.7 69.9
523.9 175.4 71.1
539.9 171.5 72.0
616.0 186.2 76.2
628.0 183.9 76.9
628.0 177.0 76.9
621.9 164.9 76.6
629.9 160.6 77.0
621.9 154.8 76.5
621.8 144.7 76.5
623.8 141.9 76.6
619.7 134.1 76.4
621.7 131.3 76.5
621.6 107.7 76.5
617.6 103.6 76.3
621.6 101.0 76.5
625.5 98.3 76.7
627.5 95.3 76.8
625.5 91.6 76.7
623.5 87.9 76.6
627.4 74.8 76.8
611.3 66.4 75.9
611.3 63.1 75.9
505.6 303.3 67.7
503.5 291.7 67.6
499.5 283.6 67.4
527.8 171.9 68.7
527.8 169.2 68.7
535.8 169.8 69.1
622.0 185.1 73.2
624.0 179.0 73.3
625.9 169.6 73.4
621.9 164.9 73.2
623.8 145.3 73.3
623.7 141.9 73.3
621.7 138.0 73.2
627.7 136.2 73.4
625.7 132.3 73.3
617.6 110.3 72.9
623.5 104.8 73.2
625.5 101.7 73.3
625.5 94.9 73.3
625.4 91.6 73.3
623.4 84.5 73.2
627.4 81.6 73.4
629.4 75.1 73.5
613.3 63.3 72.7
506.9 192.8 65.2
511.9 182.8 65.4
513.8 181.2 65.5
511.8 172.6 65.4
519.8 171.0 65.7
519.8 168.4 65.7
533.8 166.3 66.3
621.9 185.1 69.9
625.9 183.1 70.0
625.9 173.0 70.0
629.9 170.9 70.2
625.8 166.2 70.0
623.8 162.2 69.9
631.8 161.2 70.2
623.7 145.3 69.9
627.7 143.0 70.0
625.7 139.1 70.0
623.7 135.2 69.9
619.5 104.0 69.7
617.4 100.3 69.6
625.4 88.2 69.9
625.4 84.8 69.9
499.0 213.0 62.5
504.9 199.2 62.6
509.9 199.4 62.8
508.9 191.3 62.8
504.8 181.9 62.6
511.8 180.2 62.8
515.8 179.6 63.0
513.7 171.0 62.9
515.7 169.3 63.0
627.8 170.2 66.7
623.8 165.6 66.5
617.7 160.3 66.3
623.7 158.8 66.5
627.7 143.0 66.6
625.6 135.7 66.6
623.6 131.8 66.5
625.6 128.9 66.6
625.4 101.7 66.5
625.3 91.6 66.5
623.3 87.9 66.4
615.2 66.8 66.1
615.2 63.5 66.1
1045.4 -959.7 79.3
1037.4 -957.3 79.0
503.2 259.7 60.2
501.2 248.5 60.1
499.1 239.8 60.1
497.1 231.2 60.0
499.0 227.6 60.0
503.0 215.4 60.1
498.9 200.8 60.0
498.9 198.4 60.0
500.9 197.1 60.1
508.9 198.9 60.3
513.7 173.5 60.4
517.7 172.8 60.5
517.6 157.3 60.4
617.4 107.0 62.9
621.3 87.6 63.0
611.1 66.4 62.7
611.1 63.1 62.7
698.2 588.6 61.6
501.3 285.2 57.7
501.3 275.4 57.7
507.3 277.6 57.8
503.2 259.7 57.7
497.1 245.7 57.6
499.0 227.6 57.6
505.0 221.5 57.7
498.9 213.0 57.6
496.9 209.4 57.6
500.9 209.3 57.6
498.8 200.9 57.6
496.8 194.9 57.5
500.8 192.2 57.6
504.8 191.8 57.7
504.8 189.3 57.7
498.7 171.7 57.5
506.7 172.9 57.7
511.7 172.6 57.8
515.7 171.9 57.8
519.7 171.1 57.9
523.7 170.2 58.0
509.5 149.1 57.7
513.5 148.1 57.8
1574.1 6.1 76.7
1574.1 -4.5 76.7
1582.0 -15.3 76.8
1580.7 -227.7 76.6
1572.7 -236.9 76.4
1580.6 -249.0 76.5
1580.6 -259.6 76.5
1572.5 -268.5 76.4
1572.4 -279.1 76.4
1580.2 -312.7 76.5
1579.4 -450.8 76.3
1579.4 -461.4 76.3
1232.4 -944.8 69.5
507.4 295.0 55.3
497.3 281.9 55.2
501.3 280.3 55.3
501.2 263.2 55.2
505.2 261.2 55.3
501.1 253.4 55.2
497.0 238.4 55.2
499.0 227.6 55.2
501.0 226.4 55.2
498.9 213.0 55.2
500.8 199.5 55.2
502.7 188.3 55.2
498.7 179.0 55.1
506.6 172.9 55.2
511.6 170.1 55.2
515.6 169.3 55.3
517.5 144.4 55.3
513.4 137.9 55.2
517.4 136.7 55.3
521.4 135.4 55.3
523.4 133.5 55.3
615.0 63.5 56.2
1574.0 6.1 66.2
1581.9 -4.6 66.2
1581.8 -15.3 66.2
1580.7 -206.5 66.0
1580.5 -248.9 65.9
1572.3 -268.5 65.8
1580.0 -333.9 65.8
1587.2 -464.1 65.7
1224.2 -953.5 61.3
1209.2 -955.3 61.2
1127.1 -964.9 60.3
521.3 114.6 52.7
1581.7 -4.6 55.6
1581.7 -15.2 55.6
1580.6 -206.4 55.4
1580.5 -217.1 55.3
1572.4 -226.3 55.3
1572.4 -236.8 55.3
1588.3 -250.5 55.3
1580.2 -259.5 55.3
1572.2 -268.5 55.3
1580.1 -280.8 55.3
1580.1 -291.4 55.3
1579.7 -344.5 55.2
1579.1 -450.7 55.0
1224.1 -953.5 53.4
1123.0 -960.8 53.1
1099.0 -964.1 53.0
1068.1 -951.5 52.9
1041.0 -955.2 52.9
1033.1 -952.7 52.8
1009.0 -963.6 52.7
1581.5 -15.2 45.0
1572.5 -184.0 44.8
1580.5 -195.8 44.8
1580.4 -206.4 44.7
1580.3 -217.0 44.7
1572.3 -226.2 44.8
1572.2 -236.8 44.7
1580.1 -248.9 44.7
1572.1 -257.9 44.7
1564.0 -266.8 44.7
1580.0 -280.8 44.6
1587.9 -293.2 44.6
1579.6 -333.9 44.6
1579.6 -344.5 44.6
1579.5 -355.1 44.6
1571.0 -448.0 44.5
1068.0 -951.5 46.2
1040.9 -955.2 46.3
1036.9 -957.2 46.3
1004.9 -958.9 46.4
1572.2 -205.1 34.2
1580.2 -217.0 34.1
1572.1 -226.2 34.2
1572.1 -236.8 34.2
1580.0 -248.9 34.1
1579.9 -259.5 34.1
1579.9 -270.1 34.0
1571.8 -279.0 34.1
1579.7 -291.4 34.0
1579.7 -302.0 34.0
1579.5 -333.9 34.0
1579.3 -365.7 33.9
1578.8 -450.7 33.8
510.3 317.7 45.3
509.3 306.7 45.4
503.1 281.9 45.4
497.1 272.3 45.5
501.0 265.6 45.5
497.0 260.2 45.5
507.0 262.7 45.3
1581.1 -36.4 23.7
1580.3 -163.9 23.6
1580.3 -174.5 23.5
1564.2 -182.8 23.8
1572.2 -194.5 23.7
1572.1 -205.1 23.7
1580.0 -217.0 23.5
1572.0 -226.2 23.6
1571.9 -236.8 23.6
1571.8 -247.3 23.6
1579.8 -259.5 23.4
1579.7 -270.1 23.4
1579.6 -280.7 23.4
1579.6 -291.4 23.4
1579.3 -333.9 23.3
1571.3 -342.4 23.5
1571.2 -353.0 23.5
1578.6 -450.7 23.2
509.3 316.8 42.9
509.2 306.8 42.8
512.2 304.3 42.8
510.2 297.5 42.8
503.1 286.8 43.0
503.0 267.1 43.0
499.0 261.7 43.1
503.0 259.7 43.0
500.9 246.0 43.0
498.9 239.8 43.0
496.8 233.6 43.1
502.8 230.2 42.9
496.7 214.3 43.1
1157.6 -952.0 23.4
1094.6 -959.8 25.1
501.0 265.6 40.6
501.0 263.2 40.6
507.0 262.7 40.4
502.9 254.8 40.5
500.9 246.0 40.5
496.7 226.4 40.7
488.7 216.5 40.9
492.7 211.9 40.8
490.6 203.6 40.8
494.6 203.5 40.7
496.6 199.8 40.6
490.5 191.7 40.8
490.5 182.2 40.8
1086.6 -944.4 18.4
1063.6 -947.2 19.2
1032.6 -952.7 20.2
1008.5 -963.6 21.1
496.7 226.4 38.2
494.6 213.1 38.3
494.6 210.7 38.3
492.5 192.8 38.4
486.5 187.2 38.6
488.4 181.2 38.5
488.4 178.8 38.5
492.3 164.1 38.3
616.7 67.1 32.9
614.7 63.5 33.0
488.5 190.6 36.2
484.4 186.1 36.4
482.4 180.4 36.5
490.4 179.8 36.1
486.4 173.1 36.3
484.3 169.8 36.4
486.3 163.8 36.2
490.3 163.2 36.0
484.3 155.9 36.3
510.2 330.3 32.8
509.2 316.8 32.8
503.1 306.5 33.2
512.1 309.3 32.6
510.0 297.6 32.7
484.4 190.8 34.1
490.4 191.7 33.7
486.4 180.2 33.9
486.4 177.8 33.9
486.3 170.8 33.9
484.3 165.2 34.0
484.3 162.9 34.0
482.2 155.0 34.1
490.2 153.7 33.7
480.2 145.0 34.2
486.1 140.4 33.9
505.1 313.3 30.6
503.1 306.6 30.7
509.1 306.8 30.3
507.0 295.1 30.4
502.9 286.8 30.7
502.9 277.0 30.7
496.8 262.6 31.0
486.3 180.2 31.6
490.3 179.8 31.3
486.3 173.1 31.6
488.3 171.8 31.4
486.2 163.8 31.6
486.2 161.4 31.6
490.1 139.5 31.3
494.1 138.6 31.0
500.1 135.9 30.6
500.8 275.4 28.3
500.8 265.6 28.3
498.7 247.1 28.5
498.6 239.8 28.4
488.3 174.1 29.1
486.2 166.1 29.2
484.2 162.9 29.4
484.2 155.9 29.4
486.1 154.4 29.2
496.1 156.3 28.5
486.1 140.4 29.2
509.0 136.6 27.5
508.8 266.6 25.2
498.7 252.0 26.0
498.6 239.8 26.0
492.5 228.6 26.5
498.5 227.7 26.0
484.1 155.9 27.0
486.1 154.4 26.9
492.1 145.0 26.4
490.0 141.9 26.5
504.0 142.3 25.4
508.0 138.7 25.1
499.9 128.6 25.7
507.9 123.7 25.1
510.1 327.8 22.7
510.0 317.7 22.7
502.6 249.9 23.2
496.6 238.5 23.8
486.4 208.3 24.6
492.4 207.1 24.1
496.0 151.4 23.6
496.0 139.3 23.6
503.9 129.9 22.9
503.9 124.9 22.9
503.9 120.0 22.9
509.0 326.8 20.3
510.0 322.7 20.2
509.0 319.3 20.3
512.0 314.4 20.0
509.9 302.6 20.2
506.8 295.1 20.5
498.5 232.5 21.1
484.4 214.1 22.5
492.4 216.7 21.7
486.4 208.3 22.3
490.3 201.2 21.9
484.3 193.1 22.4
496.0 141.8 21.2
495.9 139.4 21.2
491.9 133.1 21.6
495.9 127.3 21.2
493.8 114.6 21.4
506.8 295.1 18.0
506.8 285.1 18.0
509.7 282.5 17.6
490.2 187.0 19.5
491.9 145.1 19.2
485.9 140.4 19.8
489.9 134.8 19.4
495.9 132.1 18.8
491.8 128.3 19.2
497.8 127.9 18.6
499.8 113.9 18.4
503.7 112.6 17.9
502.7 281.9 15.9
504.7 278.6 15.7
506.7 277.7 15.5
484.2 200.1 17.8
484.2 186.2 17.8
487.9 134.1 17.3
493.8 131.4 16.6
493.8 129.0 16.6
495.8 127.3 16.4
499.7 113.9 15.9
503.7 112.6 15.5
503.7 110.1 15.5
503.7 107.6 15.5
482.1 187.4 15.7
482.1 180.5 15.7
480.1 172.5 15.9
482.0 171.2 15.7
484.0 169.9 15.4
