477.4 233.9 84.4
477.4 240.7 79.9
522.4 231.8 84.1
530.4 226.0 84.8
505.3 226.5 80.0
507.3 225.2 80.2
530.4 234.0 82.2
534.4 228.3 82.5
546.4 232.5 83.5
501.3 226.4 77.2
507.3 227.7 77.7
518.3 229.4 78.6
526.3 231.6 79.2
540.4 231.8 80.3
542.3 227.5 80.4
483.2 226.6 73.5
491.2 227.2 74.1
503.3 227.7 74.9
509.3 229.0 75.3
510.3 227.1 75.4
632.4 223.1 84.1
641.4 223.6 84.7
477.2 234.0 70.8
481.2 232.2 71.1
497.2 231.2 72.1
606.3 224.6 79.0
620.3 224.5 79.9
647.3 222.6 81.6
653.3 221.6 81.9
688.4 220.8 84.2
700.4 221.5 84.9
479.2 235.4 68.7
479.2 230.8 68.7
600.3 228.1 75.4
608.3 225.5 75.8
616.3 222.7 76.3
630.3 222.2 77.1
641.3 220.1 77.7
667.3 223.8 79.1
671.3 221.7 79.4
680.3 221.5 79.9
680.3 217.7 79.9
692.3 218.5 80.5
712.4 222.1 81.6
739.3 215.2 83.1
751.3 215.0 83.8
573.2 230.0 70.9
585.2 227.0 71.5
594.2 228.4 71.9
616.2 226.0 73.0
622.2 225.4 73.3
624.2 223.0 73.4
632.2 223.1 73.7
647.2 222.6 74.5
671.3 225.4 75.6
677.3 224.1 75.9
684.3 223.1 76.3
692.3 222.4 76.6
700.3 221.5 77.0
716.3 223.6 77.8
731.3 220.8 78.5
739.3 219.4 78.9
743.3 216.6 79.1
824.2 14.6 82.8
824.1 9.7 82.8
824.1 4.8 82.8
820.1 0.1 82.6
820.0 -4.8 82.6
820.0 -9.6 82.6
816.0 -14.3 82.4
824.0 -19.6 82.7
815.9 -23.9 82.4
823.9 -29.4 82.7
823.9 -34.3 82.7
815.8 -38.5 82.3
819.8 -43.7 82.5
811.8 -47.7 82.1
815.8 -53.0 82.3
819.7 -58.3 82.5
815.7 -62.6 82.3
811.7 -66.9 82.1
815.6 -72.3 82.3
819.6 -77.8 82.5
815.6 -82.0 82.3
811.6 -86.1 82.1
815.5 -91.6 82.3
815.5 -96.5 82.3
811.5 -100.5 82.1
815.4 -106.1 82.3
815.4 -111.0 82.2
811.4 -115.0 82.0
819.4 -121.5 82.4
811.3 -124.6 82.0
811.3 -129.4 82.0
815.3 -135.2 82.2
815.2 -140.0 82.2
811.2 -143.8 82.0
811.2 -148.6 82.0
811.2 -153.4 82.0
807.1 -161.8 81.8
807.1 -166.6 81.8
807.1 -171.4 81.8
811.0 -177.4 82.0
806.8 -219.1 81.7
799.8 -221.2 81.4
799.7 -225.9 81.4
555.2 231.9 67.2
557.1 227.3 67.3
561.1 226.6 67.4
575.2 231.0 68.0
573.2 227.0 67.9
594.2 228.4 68.8
600.2 225.0 69.0
616.2 226.0 69.7
647.2 222.6 70.9
655.2 222.4 71.2
673.2 226.2 72.0
696.2 223.9 72.9
700.2 221.5 73.1
828.1 14.6 78.1
824.1 9.8 77.9
824.0 4.9 77.9
824.0 -0.0 77.9
820.0 -4.8 77.7
815.9 -9.4 77.5
819.9 -14.5 77.7
827.9 -19.9 78.0
815.9 -23.9 77.5
819.8 -29.1 77.7
811.8 -33.3 77.3
823.8 -39.2 77.8
819.7 -43.7 77.7
819.7 -48.6 77.7
819.7 -53.4 77.6
815.7 -57.8 77.5
815.6 -62.6 77.5
819.6 -68.0 77.6
819.6 -72.9 77.6
815.5 -77.1 77.5
819.5 -82.6 77.6
819.5 -87.5 77.6
811.5 -90.9 77.3
815.4 -96.5 77.4
811.4 -100.5 77.3
815.4 -106.1 77.4
819.3 -111.8 77.6
803.3 -113.2 76.9
819.3 -121.5 77.6
815.3 -125.5 77.4
811.2 -129.4 77.2
807.2 -133.2 77.1
807.2 -138.0 77.1
815.1 -144.8 77.4
811.1 -148.6 77.2
811.1 -153.4 77.2
811.0 -163.0 77.2
803.0 -165.4 76.9
810.9 -177.4 77.2
802.7 -212.9 76.8
806.7 -223.9 76.9
802.6 -227.1 76.8
948.1 -843.9 82.1
932.1 -843.3 81.4
528.1 232.9 63.4
569.1 227.9 64.8
598.1 230.4 65.8
620.1 224.5 66.5
624.1 223.0 66.6
637.1 225.3 67.0
824.1 24.4 73.0
824.0 19.5 73.0
824.0 14.7 73.0
811.9 0.4 72.6
819.9 -9.6 72.8
823.8 -14.7 73.0
823.8 -19.6 73.0
823.8 -24.5 73.0
823.8 -29.4 72.9
823.7 -34.3 72.9
815.7 -38.4 72.7
819.7 -43.7 72.8
819.6 -48.5 72.8
819.6 -53.4 72.8
815.6 -57.8 72.6
819.6 -63.1 72.8
815.5 -67.5 72.6
815.5 -72.3 72.6
815.5 -77.1 72.6
815.4 -82.0 72.6
815.4 -86.8 72.6
815.4 -91.6 72.6
819.4 -97.2 72.7
811.3 -100.5 72.5
811.3 -105.3 72.5
811.3 -110.1 72.4
819.2 -116.7 72.7
819.2 -121.5 72.7
815.2 -125.5 72.6
815.2 -130.3 72.6
815.1 -135.1 72.6
815.1 -140.0 72.5
807.1 -142.7 72.3
815.0 -149.6 72.5
807.0 -152.3 72.3
807.0 -157.1 72.3
807.0 -161.8 72.3
810.9 -167.8 72.4
806.9 -171.4 72.2
810.9 -177.4 72.4
802.7 -203.4 72.1
802.6 -222.3 72.0
806.6 -228.7 72.2
948.0 -843.9 76.2
928.1 -838.7 75.5
901.0 -841.1 74.6
870.0 -841.4 73.6
483.1 238.2 59.6
485.1 235.0 59.7
485.0 228.0 59.7
493.1 230.9 59.9
491.0 227.2 59.8
510.1 232.1 60.3
510.1 229.6 60.3
530.1 234.1 60.8
552.1 233.1 61.4
559.1 228.4 61.6
571.1 228.9 61.9
577.1 229.0 62.0
612.1 227.4 62.9
624.1 226.3 63.2
630.1 225.7 63.4
824.0 19.6 68.1
827.9 14.6 68.2
819.9 9.8 68.0
823.9 4.9 68.1
827.9 -0.2 68.2
823.8 -9.8 68.1
827.8 -14.9 68.2
827.7 -19.9 68.2
827.7 -24.8 68.2
823.7 -29.4 68.1
823.7 -34.3 68.0
823.6 -39.2 68.0
823.6 -44.1 68.0
823.6 -49.0 68.0
819.5 -53.4 67.9
819.5 -58.3 67.9
819.5 -63.1 67.9
815.5 -67.4 67.8
819.4 -72.9 67.9
811.4 -76.5 67.7
815.4 -82.0 67.8
815.3 -86.8 67.8
819.3 -92.3 67.9
819.3 -97.2 67.9
811.3 -100.5 67.7
807.2 -104.5 67.6
815.2 -111.0 67.7
819.2 -116.7 67.8
819.1 -121.5 67.8
815.1 -125.5 67.7
819.1 -131.3 67.8
811.1 -134.2 67.6
815.0 -140.0 67.7
815.0 -144.8 67.7
811.0 -148.6 67.6
810.9 -153.4 67.6
806.9 -157.0 67.5
806.9 -161.8 67.5
810.9 -167.8 67.6
810.8 -177.4 67.6
814.8 -183.5 67.7
810.7 -187.0 67.5
814.7 -193.2 67.6
802.5 -222.3 67.3
802.5 -227.1 67.3
806.5 -233.4 67.4
904.9 -845.8 69.2
865.9 -836.5 68.2
481.0 236.8 57.3
483.0 233.6 57.3
483.0 231.3 57.3
491.0 229.6 57.5
501.0 228.9 57.6
509.0 231.5 57.8
528.1 235.5 58.1
530.1 234.1 58.2
534.1 233.8 58.3
552.1 233.1 58.6
553.0 228.0 58.6
557.0 227.3 58.7
571.0 228.9 58.9
575.0 228.0 59.0
591.1 230.0 59.3
827.9 19.5 63.3
823.9 14.7 63.2
827.8 9.7 63.3
823.8 4.9 63.2
827.8 -0.2 63.3
823.7 -9.8 63.2
819.7 -14.5 63.1
819.7 -19.3 63.1
823.6 -24.5 63.2
823.6 -29.4 63.2
819.6 -33.9 63.1
823.6 -39.2 63.1
823.5 -44.1 63.1
819.5 -48.5 63.1
819.5 -53.4 63.1
819.4 -58.3 63.1
819.4 -63.1 63.0
819.4 -68.0 63.0
815.4 -72.3 63.0
815.3 -77.1 63.0
819.3 -82.6 63.0
819.3 -87.5 63.0
815.2 -91.6 62.9
819.2 -97.2 63.0
815.2 -101.3 62.9
815.2 -106.1 62.9
815.1 -111.0 62.9
815.1 -115.8 62.9
819.1 -121.5 63.0
811.0 -124.5 62.8
815.0 -130.3 62.9
815.0 -135.1 62.9
811.0 -139.0 62.8
802.9 -141.7 62.7
810.9 -148.6 62.8
810.9 -153.4 62.8
810.8 -158.2 62.8
810.8 -163.0 62.8
814.8 -169.0 62.8
818.8 -175.0 62.9
814.7 -183.5 62.8
802.5 -222.3 62.6
806.4 -228.7 62.6
802.4 -231.8 62.5
806.4 -238.2 62.6
799.4 -240.0 62.5
806.3 -247.8 62.6
481.0 236.8 55.0
485.0 228.0 55.0
493.0 230.9 55.1
503.0 230.2 55.2
528.0 235.5 55.5
538.0 236.1 55.6
827.8 9.7 58.4
827.7 4.8 58.4
823.7 -0.0 58.3
823.7 -4.9 58.3
823.7 -9.8 58.3
823.6 -14.7 58.3
827.6 -24.8 58.3
827.5 -29.7 58.3
823.5 -34.3 58.3
819.5 -38.8 58.2
819.5 -43.7 58.2
823.4 -49.0 58.2
823.4 -53.9 58.2
823.4 -58.8 58.2
819.3 -63.1 58.2
819.3 -68.0 58.2
819.3 -72.9 58.2
815.3 -77.1 58.1
815.2 -81.9 58.1
819.2 -87.5 58.2
819.2 -92.3 58.1
811.1 -95.7 58.1
819.1 -102.0 58.1
811.1 -105.3 58.0
815.1 -110.9 58.1
819.0 -116.6 58.1
815.0 -120.6 58.1
811.0 -124.5 58.0
814.9 -130.3 58.1
814.9 -135.1 58.0
810.9 -138.9 58.0
814.9 -144.8 58.0
814.8 -149.6 58.0
806.8 -152.3 57.9
814.8 -159.3 58.0
810.7 -167.8 58.0
810.7 -172.6 58.0
810.7 -177.4 58.0
810.6 -182.2 57.9
814.6 -193.1 58.0
802.4 -227.1 57.8
802.3 -231.8 57.8
806.3 -238.2 57.8
802.3 -241.3 57.8
802.3 -246.0 57.8
806.2 -252.5 57.8
831.7 9.6 53.4
827.7 4.8 53.4
827.6 -0.1 53.4
827.6 -5.1 53.4
827.6 -10.0 53.4
823.6 -14.7 53.4
823.5 -19.6 53.4
827.5 -29.7 53.4
819.4 -33.9 53.4
823.4 -39.2 53.4
823.4 -44.1 53.4
823.4 -49.0 53.3
819.3 -53.4 53.3
819.3 -58.3 53.3
823.3 -63.6 53.3
827.2 -69.1 53.3
819.2 -72.9 53.3
819.2 -77.7 53.3
819.2 -82.6 53.3
819.1 -87.4 53.3
819.1 -92.3 53.3
815.1 -96.4 53.3
815.0 -101.3 53.3
819.0 -106.9 53.3
815.0 -110.9 53.2
819.0 -116.6 53.3
814.9 -120.6 53.2
814.9 -125.4 53.2
822.9 -132.2 53.2
814.8 -135.1 53.2
810.8 -138.9 53.2
814.8 -144.8 53.2
814.8 -149.6 53.2
810.7 -153.4 53.2
806.7 -157.0 53.2
814.7 -164.1 53.2
810.6 -167.8 53.2
814.6 -173.8 53.2
810.6 -177.4 53.2
814.6 -183.5 53.2
802.3 -227.1 53.1
806.3 -233.4 53.1
802.2 -236.5 53.1
806.2 -243.0 53.1
802.2 -246.0 53.0
806.1 -252.5 53.0
955.7 -835.0 52.8
923.7 -834.2 52.7
900.7 -841.1 52.6
831.6 4.7 48.5
823.6 -0.0 48.5
827.5 -5.1 48.5
819.5 -9.6 48.5
823.5 -14.7 48.5
827.5 -19.8 48.5
823.4 -29.4 48.5
823.4 -34.3 48.5
831.3 -39.9 48.4
819.3 -43.7 48.5
823.3 -49.0 48.5
815.3 -52.9 48.5
815.2 -57.7 48.5
819.2 -63.1 48.5
815.2 -67.4 48.5
819.1 -72.8 48.4
819.1 -77.7 48.4
811.1 -81.3 48.5
815.1 -86.8 48.4
819.0 -92.3 48.4
815.0 -96.4 48.4
811.0 -100.5 48.4
814.9 -106.1 48.4
822.9 -112.6 48.4
818.9 -116.6 48.4
814.9 -120.6 48.4
810.8 -124.5 48.4
818.8 -131.2 48.4
810.8 -134.1 48.4
802.8 -136.9 48.4
814.7 -144.8 48.4
818.7 -150.7 48.3
810.7 -153.3 48.4
810.6 -158.2 48.4
806.6 -161.8 48.4
810.6 -167.8 48.4
814.5 -173.8 48.3
810.5 -177.4 48.3
810.5 -182.2 48.3
795.3 -214.9 48.4
799.2 -225.9 48.3
806.2 -233.4 48.3
802.2 -236.5 48.3
799.2 -240.0 48.3
802.1 -246.0 48.3
799.1 -249.5 48.3
927.6 -838.7 47.0
896.6 -836.4 47.1
869.6 -841.4 47.2
823.6 9.8 43.6
823.5 4.9 43.6
827.5 -0.1 43.6
823.5 -4.9 43.6
823.4 -9.8 43.6
823.4 -14.7 43.6
827.4 -19.8 43.5
827.3 -24.8 43.5
819.3 -33.9 43.6
819.3 -38.8 43.6
815.2 -43.2 43.7
819.2 -48.5 43.6
823.2 -53.8 43.6
815.2 -57.7 43.6
823.1 -63.6 43.5
819.1 -68.0 43.6
819.1 -72.8 43.6
815.0 -77.1 43.6
815.0 -81.9 43.6
819.0 -87.4 43.6
815.0 -91.6 43.6
810.9 -95.7 43.6
814.9 -101.3 43.6
814.9 -106.1 43.6
814.8 -110.9 43.6
814.8 -115.8 43.6
806.8 -118.8 43.7
814.8 -125.4 43.6
814.7 -130.3 43.6
814.7 -135.1 43.5
814.7 -139.9 43.5
810.6 -143.7 43.6
814.6 -149.6 43.5
810.6 -153.3 43.6
802.6 -155.9 43.7
810.5 -163.0 43.6
814.5 -168.9 43.5
810.5 -172.6 43.6
810.5 -177.4 43.5
810.4 -182.2 43.5
814.4 -188.3 43.5
806.1 -238.2 43.5
799.1 -240.0 43.6
799.1 -244.7 43.6
799.0 -249.5 43.6
798.9 -277.8 43.6
801.8 -284.0 43.5
823.5 14.7 38.7
823.5 9.8 38.7
823.5 4.9 38.7
831.4 -0.3 38.6
823.4 -4.9 38.7
823.4 -9.8 38.7
823.3 -14.7 38.7
827.3 -19.8 38.6
815.3 -23.9 38.9
819.3 -29.0 38.8
823.2 -34.3 38.7
827.2 -39.5 38.6
819.2 -43.6 38.8
819.1 -48.5 38.7
823.1 -53.8 38.7
823.1 -58.7 38.7
819.1 -63.1 38.7
819.0 -68.0 38.7
815.0 -72.2 38.8
811.0 -76.5 38.9
810.9 -81.3 38.9
822.9 -88.1 38.6
814.9 -91.6 38.8
818.9 -97.2 38.7
806.8 -99.7 38.9
810.8 -105.3 38.8
810.8 -110.1 38.8
818.7 -116.6 38.7
810.7 -119.7 38.8
814.7 -125.4 38.7
810.7 -129.3 38.8
814.6 -135.1 38.7
814.6 -139.9 38.7
814.6 -144.8 38.7
810.5 -148.5 38.8
810.5 -153.3 38.8
806.5 -157.0 38.8
806.5 -161.8 38.8
814.4 -168.9 38.7
806.4 -171.3 38.8
810.4 -177.4 38.7
806.4 -180.9 38.8
806.1 -228.6 38.8
806.0 -233.4 38.8
806.0 -238.2 38.7
806.0 -242.9 38.7
802.0 -246.0 38.8
805.9 -252.5 38.7
801.8 -279.2 38.8
801.8 -284.0 38.8
801.7 -298.2 38.7
794.6 -308.7 38.9
798.6 -315.6 38.8
482.9 238.2 43.5
482.8 226.7 43.5
506.8 230.2 42.8
551.8 227.5 41.6
562.8 230.6 41.3
572.8 230.0 41.0
823.5 24.5 33.9
823.5 19.6 33.9
827.4 14.7 33.7
827.4 9.7 33.7
827.4 4.8 33.7
827.3 -0.1 33.7
827.3 -5.0 33.7
819.3 -9.6 33.9
823.3 -14.7 33.8
819.2 -19.3 33.9
819.2 -24.2 33.9
819.2 -29.0 33.9
823.1 -34.2 33.8
823.1 -39.1 33.8
819.1 -43.6 33.9
823.1 -48.9 33.8
819.0 -53.4 33.9
827.0 -59.2 33.7
819.0 -63.1 33.9
819.0 -68.0 33.9
818.9 -72.8 33.9
818.9 -77.7 33.8
814.9 -81.9 34.0
818.8 -87.4 33.8
822.8 -93.0 33.7
810.8 -95.7 34.0
814.8 -101.2 33.9
814.7 -106.1 33.9
814.7 -110.9 33.9
810.7 -114.9 34.0
806.7 -118.8 34.1
814.6 -125.4 33.9
814.6 -130.3 33.9
814.6 -135.1 33.9
810.5 -138.9 34.0
814.5 -144.8 33.9
814.5 -149.6 33.9
806.5 -152.2 34.1
806.4 -161.8 34.1
810.4 -167.7 34.0
806.3 -171.3 34.1
806.3 -176.1 34.0
810.3 -182.2 33.9
799.1 -216.4 34.2
802.0 -227.0 34.1
802.0 -231.8 34.1
802.0 -236.5 34.1
805.9 -242.9 34.0
801.9 -246.0 34.1
805.9 -252.5 34.0
798.8 -268.3 34.1
794.7 -275.9 34.2
798.7 -282.5 34.1
798.5 -310.8 34.1
798.5 -315.6 34.1
801.4 -326.7 34.0
480.7 225.3 41.2
490.8 229.6 40.9
502.7 227.7 40.4
525.8 234.3 39.7
541.8 233.0 39.1
554.8 234.8 38.6
554.7 229.1 38.6
558.7 228.4 38.5
556.7 224.5 38.6
572.7 230.0 38.0
576.7 229.1 37.9
593.7 231.6 37.3
603.7 226.9 36.9
631.7 226.6 36.0
636.7 225.4 35.8
644.7 225.4 35.5
823.5 39.2 29.0
827.5 34.4 28.8
823.5 29.4 29.0
827.4 24.5 28.8
823.4 19.6 29.0
823.4 14.7 29.0
823.3 9.8 29.0
827.3 4.8 28.8
823.3 0.0 28.9
819.3 -4.7 29.1
827.2 -10.0 28.8
827.2 -14.9 28.8
823.2 -19.6 28.9
819.1 -24.2 29.1
823.1 -29.3 28.9
823.1 -34.2 28.9
823.0 -39.1 28.9
815.0 -43.2 29.2
819.0 -48.5 29.0
823.0 -53.8 28.9
822.9 -58.7 28.9
814.9 -62.6 29.1
818.9 -68.0 29.0
818.9 -72.8 29.0
818.8 -77.7 29.0
818.8 -82.5 29.0
818.8 -87.4 29.0
818.7 -92.3 29.0
814.7 -96.4 29.1
806.7 -99.7 29.4
810.7 -105.3 29.2
810.6 -110.1 29.2
814.6 -115.7 29.1
810.6 -119.7 29.2
810.5 -124.5 29.2
814.5 -130.2 29.1
810.5 -134.1 29.2
814.5 -139.9 29.0
814.4 -144.8 29.0
806.4 -147.4 29.3
810.4 -153.3 29.2
814.3 -159.3 29.0
806.3 -166.5 29.3
806.3 -171.3 29.3
810.2 -177.3 29.1
810.2 -182.2 29.1
799.0 -225.8 29.5
801.9 -231.8 29.3
801.9 -236.5 29.3
801.9 -241.3 29.3
801.8 -250.7 29.3
801.7 -269.7 29.3
798.6 -277.8 29.4
801.6 -284.0 29.3
794.5 -308.7 29.5
798.4 -315.5 29.3
801.4 -326.7 29.2
486.8 234.0 38.7
480.7 225.3 38.9
492.7 231.0 38.4
502.7 230.2 38.0
527.7 230.2 36.9
552.7 233.7 35.9
552.7 228.0 35.9
562.7 230.6 35.4
568.7 227.9 35.2
580.7 231.1 34.7
578.7 224.0 34.8
601.7 226.0 33.8
613.6 225.1 33.3
629.6 225.7 32.6
634.6 224.5 32.4
644.6 225.4 32.0
654.6 226.1 31.5
656.6 223.3 31.5
666.6 223.8 31.0
691.6 226.3 30.0
703.6 223.1 29.5
715.6 219.6 28.9
827.5 49.2 23.9
827.4 39.3 23.9
823.4 34.3 24.1
827.4 29.5 23.9
827.3 24.5 23.9
823.3 19.6 24.1
823.3 14.7 24.1
819.3 9.9 24.2
823.2 4.9 24.1
827.2 -0.1 23.9
819.2 -4.7 24.2
819.2 -9.6 24.2
819.1 -14.4 24.2
819.1 -19.3 24.2
823.1 -24.4 24.0
819.0 -29.0 24.2
819.0 -33.9 24.2
823.0 -39.1 24.0
819.0 -43.6 24.2
818.9 -48.5 24.2
818.9 -53.3 24.1
810.9 -57.2 24.5
818.8 -63.1 24.1
810.8 -66.8 24.5
818.8 -72.8 24.1
814.8 -77.1 24.3
814.7 -81.9 24.3
814.7 -86.7 24.3
814.7 -91.6 24.3
818.6 -97.1 24.1
814.6 -101.2 24.3
810.6 -105.3 24.4
814.6 -110.9 24.2
814.5 -115.7 24.2
814.5 -120.6 24.2
806.5 -123.6 24.6
810.4 -129.3 24.4
806.4 -133.1 24.6
814.4 -139.9 24.2
814.4 -144.7 24.2
810.3 -148.5 24.4
810.3 -153.3 24.4
810.3 -158.1 24.4
814.2 -168.9 24.2
810.2 -172.5 24.3
810.1 -182.1 24.3
805.9 -223.8 24.4
805.8 -233.4 24.4
805.8 -238.2 24.4
801.8 -241.3 24.6
794.8 -243.0 24.9
801.6 -269.7 24.6
794.6 -271.2 24.8
798.6 -277.8 24.7
798.6 -282.5 24.7
798.5 -296.7 24.6
798.4 -310.8 24.6
801.3 -321.9 24.5
794.3 -327.5 24.8
539.7 237.4 33.7
552.7 233.7 33.0
552.6 228.0 33.0
558.6 228.4 32.7
570.6 229.0 32.1
572.6 227.0 32.0
601.6 226.0 30.6
601.6 222.8 30.6
611.6 224.2 30.1
621.6 225.5 29.6
640.6 227.1 28.6
644.6 225.4 28.4
650.6 224.4 28.1
676.5 224.2 26.8
679.5 221.6 26.7
730.5 220.9 24.1
831.4 54.3 18.8
827.4 49.2 19.0
827.4 39.3 19.0
827.3 34.4 19.0
827.3 29.5 19.0
827.3 24.5 19.0
823.2 19.6 19.2
823.2 14.7 19.2
819.2 9.9 19.4
827.1 -0.1 19.0
823.1 -4.9 19.1
819.1 -14.4 19.3
823.0 -19.5 19.1
819.0 -24.2 19.3
815.0 -28.7 19.5
822.9 -34.2 19.1
822.9 -39.1 19.1
814.9 -43.2 19.5
822.8 -53.8 19.1
818.8 -58.2 19.3
822.8 -63.6 19.1
810.7 -66.8 19.7
814.7 -72.2 19.5
810.7 -76.4 19.7
806.7 -80.6 19.9
814.6 -86.7 19.4
818.6 -92.3 19.2
806.6 -94.9 19.8
814.5 -101.2 19.4
814.5 -106.1 19.4
814.5 -110.9 19.4
818.4 -116.6 19.2
810.4 -119.7 19.6
810.4 -124.5 19.6
814.4 -130.2 19.4
814.3 -135.1 19.4
806.3 -137.9 19.8
810.3 -143.7 19.6
806.2 -152.2 19.8
810.2 -158.1 19.6
814.1 -168.9 19.3
806.1 -171.3 19.7
806.1 -176.1 19.7
810.1 -182.1 19.5
801.8 -222.3 19.9
801.8 -231.8 19.9
801.7 -241.2 19.8
798.7 -244.7 20.0
798.7 -249.4 20.0
794.6 -271.2 20.2
798.5 -282.5 19.9
798.5 -287.2 19.9
798.3 -310.8 19.9
794.3 -313.4 20.1
801.2 -321.9 19.7
554.6 229.1 30.1
558.6 228.4 29.8
574.6 231.1 28.9
572.6 227.0 29.0
586.6 225.0 28.2
599.6 225.0 27.5
617.5 223.6 26.4
629.5 225.7 25.8
640.5 223.6 25.1
806.5 -99.7 15.1
806.5 -104.5 15.0
806.4 -114.0 15.0
802.1 -170.1 15.2
798.7 -230.5 15.3
801.7 -236.5 15.1
801.6 -246.0 15.1
798.4 -282.5 15.2
798.2 -310.8 15.2
794.2 -313.4 15.4
798.2 -320.3 15.2
484.7 239.7 29.5
490.6 236.8 29.0
482.5 226.7 27.3
494.6 232.3 26.3
494.5 229.9 26.3
506.5 230.3 25.4
482.6 233.6 25.0
498.5 227.7 23.6
506.5 230.3 22.9
496.5 231.2 21.3
494.5 225.1 21.5
498.4 225.2 21.1
509.5 229.7 20.1
502.4 227.8 18.3
488.7 273.1 17.4
488.6 261.4 17.4
484.5 249.0 17.8
488.6 263.7 15.1
484.5 246.7 15.5
484.4 237.3 15.5
