1111.8 448.4 83.0
1111.7 441.3 83.0
1111.7 434.3 83.0
1111.6 427.3 83.0
1111.5 406.1 82.9
1103.4 395.8 82.7
1111.4 392.0 82.9
1111.4 385.0 82.9
1107.3 376.4 82.8
1095.2 364.9 82.4
1103.2 353.9 82.6
1111.1 335.6 82.8
1111.0 321.5 82.8
1106.9 306.2 82.7
1106.9 299.2 82.7
1110.8 293.3 82.8
1106.8 285.1 82.7
1110.8 279.2 82.8
1110.7 272.2 82.8
1114.7 266.2 82.9
1098.6 255.0 82.4
1102.6 249.1 82.5
1106.5 243.0 82.6
1102.4 228.1 82.4
1102.4 221.1 82.4
1102.3 207.1 82.4
1098.3 199.4 82.3
1102.2 193.2 82.4
1102.2 186.2 82.4
1102.2 179.2 82.4
1098.1 171.6 82.2
1098.1 164.6 82.2
1106.0 158.8 82.5
1102.0 151.2 82.4
1110.0 145.3 82.6
1097.9 136.8 82.2
1101.9 130.3 82.3
1097.8 122.8 82.2
1105.8 109.7 82.4
1097.7 102.0 82.2
1097.6 88.1 82.1
1097.6 81.1 82.1
1101.5 74.4 82.3
1209.6 -939.6 84.7
1166.6 -945.0 83.3
1162.5 -948.6 83.2
1138.6 -932.4 82.4
1142.6 -943.7 82.5
1123.6 -939.2 81.9
1115.6 -938.3 81.6
1095.6 -938.9 81.0
1060.4 -963.1 79.8
1052.4 -967.5 79.5
1060.2 -996.7 79.7
1056.1 -1018.9 79.6
1052.0 -1027.5 79.4
1063.9 -1048.6 79.8
1059.8 -1063.9 79.7
1111.6 441.4 75.9
1115.5 429.0 76.0
1115.5 421.9 76.0
1111.4 413.2 75.9
1111.4 406.1 75.9
1107.3 397.4 75.8
1103.3 381.9 75.7
1107.2 369.4 75.7
1111.1 363.8 75.8
1107.1 355.3 75.7
1107.0 341.3 75.7
1107.0 334.3 75.7
1110.9 328.6 75.8
1110.9 321.5 75.8
1106.8 313.2 75.7
1098.8 303.8 75.5
1102.8 298.0 75.6
1110.7 293.3 75.7
1110.7 286.3 75.7
1114.7 280.3 75.8
1110.6 265.1 75.7
1102.5 256.1 75.5
1106.5 250.1 75.6
1106.4 243.0 75.6
1106.4 236.0 75.6
1102.3 228.1 75.5
1102.3 221.1 75.5
1106.2 208.0 75.5
1102.2 200.2 75.4
1106.1 193.9 75.5
1110.1 187.6 75.6
1106.1 179.9 75.5
1102.0 172.2 75.4
1098.0 164.6 75.3
1097.9 157.6 75.3
1105.9 151.8 75.5
1109.9 145.3 75.6
1097.8 136.8 75.2
1101.8 130.3 75.3
1101.7 123.3 75.3
1105.7 116.7 75.4
1105.6 109.7 75.4
1105.6 102.7 75.4
1101.6 95.3 75.3
1105.5 88.6 75.4
1105.4 74.6 75.4
1427.6 -951.5 82.5
1287.6 -935.9 78.9
1279.6 -937.4 78.7
1271.6 -938.8 78.5
1263.5 -948.3 78.3
1224.6 -929.6 77.3
1185.5 -940.4 76.3
1170.5 -941.3 75.9
1166.5 -945.0 75.8
1150.5 -936.8 75.4
1138.5 -932.4 75.1
1142.5 -943.7 75.2
1115.5 -938.3 74.5
1107.5 -937.2 74.3
1095.5 -938.9 74.0
1087.4 -944.5 73.8
1056.5 -931.9 73.0
1060.3 -963.1 73.1
1052.3 -967.5 72.9
1055.9 -1032.3 72.9
1063.8 -1048.5 73.1
1067.7 -1073.7 73.1
1115.6 450.2 69.0
1119.5 445.0 69.0
1111.5 434.3 68.9
1107.4 418.5 68.8
1111.3 413.2 68.9
1111.3 406.1 68.8
1107.2 397.5 68.8
1107.2 390.4 68.8
1107.2 383.4 68.7
1107.1 369.4 68.7
1107.0 362.4 68.7
1111.0 356.8 68.8
1107.0 348.3 68.7
1106.9 341.3 68.7
1106.9 334.3 68.7
1110.8 328.6 68.7
1106.8 320.3 68.7
1106.7 313.2 68.7
1102.7 305.0 68.6
1102.7 298.0 68.6
1114.6 294.5 68.8
1098.6 282.9 68.5
1110.5 279.2 68.7
1106.5 271.1 68.6
1102.4 263.1 68.5
1102.4 256.1 68.5
1106.4 250.1 68.6
1110.3 244.0 68.6
1106.3 236.0 68.6
1102.2 221.1 68.5
1106.1 200.9 68.5
1102.0 193.2 68.4
1098.0 185.5 68.4
1106.0 179.9 68.5
1101.9 172.2 68.4
1090.9 163.5 68.2
1101.8 158.2 68.4
1101.8 151.3 68.4
1113.8 145.9 68.6
1101.7 137.3 68.4
1097.7 129.8 68.3
1097.6 122.9 68.3
1101.6 116.3 68.3
1109.5 110.1 68.5
1105.5 102.7 68.4
1109.5 96.0 68.5
1105.4 88.6 68.4
1101.4 81.4 68.3
1101.3 74.4 68.3
1599.5 -944.3 76.1
1420.4 -946.0 72.8
1380.4 -951.6 72.1
1357.4 -951.0 71.7
1334.4 -949.8 71.3
1263.5 -931.8 70.0
1255.4 -941.2 69.9
1224.5 -929.6 69.3
1209.4 -939.6 69.1
1193.4 -940.3 68.8
1185.4 -940.4 68.6
1162.4 -941.1 68.2
1107.3 -944.3 67.2
1095.4 -938.9 67.0
1080.4 -937.1 66.7
1064.2 -967.5 66.4
1052.2 -967.5 66.2
1068.0 -1005.8 66.4
1051.8 -1027.5 66.1
1063.7 -1048.5 66.3
1067.6 -1073.7 66.3
1111.4 448.4 61.9
1107.3 432.6 61.8
1111.2 413.2 61.8
1111.2 406.1 61.8
1107.1 397.5 61.7
1107.1 390.4 61.7
1107.1 383.4 61.7
1103.0 374.9 61.7
1103.0 367.9 61.7
1106.9 362.4 61.7
1102.9 353.9 61.7
1106.8 348.3 61.7
1106.8 341.3 61.7
1110.8 335.6 61.7
1106.7 327.3 61.7
1110.7 321.5 61.7
1106.6 313.2 61.6
1102.6 305.0 61.6
1102.5 298.0 61.6
1114.5 294.5 61.7
1094.5 281.8 61.5
1106.4 278.2 61.6
1110.4 265.2 61.6
1106.3 257.1 61.6
1106.3 250.1 61.6
1106.2 236.0 61.5
1106.1 229.0 61.5
1102.1 221.1 61.5
1098.0 213.3 61.4
1106.0 208.0 61.5
1102.0 200.2 61.5
1101.9 193.2 61.4
1101.9 186.2 61.4
1105.9 179.9 61.5
1097.8 164.6 61.4
1101.7 158.3 61.4
1101.7 151.3 61.4
1113.7 145.9 61.5
1093.6 136.3 61.3
1105.6 130.8 61.4
1097.5 122.9 61.3
1097.5 115.9 61.3
1101.4 109.3 61.3
1101.4 95.4 61.3
1093.3 87.8 61.2
1101.3 81.4 61.3
1105.2 74.6 61.3
1097.2 67.2 61.2
1662.3 -953.1 65.9
1420.3 -946.0 63.4
1326.3 -943.1 62.4
1310.3 -938.3 62.3
1263.3 -931.8 61.8
1255.3 -941.2 61.7
1209.3 -939.6 61.2
1201.2 -947.8 61.1
1185.3 -940.4 61.0
1166.3 -937.4 60.8
1158.2 -944.6 60.7
1138.3 -932.4 60.5
1134.3 -935.7 60.4
1123.2 -946.4 60.3
1111.2 -948.4 60.2
1091.3 -934.7 60.0
1084.2 -941.3 59.9
1080.2 -943.9 59.9
1056.3 -931.8 59.6
1107.3 446.6 54.8
1107.2 432.6 54.8
1107.1 411.5 54.7
1107.1 404.5 54.7
1107.0 383.4 54.7
1106.9 376.4 54.7
1106.9 369.4 54.7
1106.8 362.4 54.7
1102.8 353.9 54.7
1106.7 348.3 54.7
1106.7 341.3 54.7
1106.7 334.3 54.7
1102.6 326.0 54.6
1102.5 312.0 54.6
1102.5 305.0 54.6
1098.4 296.8 54.6
1114.4 294.5 54.6
1098.4 282.9 54.6
1110.3 279.3 54.6
1110.3 272.2 54.6
1110.3 265.2 54.6
1106.2 257.1 54.6
1102.2 249.1 54.5
1106.1 236.1 54.5
1098.0 227.3 54.5
1106.0 215.0 54.5
1105.9 208.0 54.5
1101.9 200.2 54.5
1101.8 193.2 54.5
1105.8 186.9 54.5
1101.7 179.2 54.4
1101.7 172.2 54.4
1101.7 165.3 54.4
1101.6 158.3 54.4
1101.6 151.3 54.4
1109.5 145.3 54.4
1101.5 130.3 54.4
1101.4 116.3 54.4
1101.3 109.3 54.4
1093.3 101.7 54.3
1101.3 95.4 54.3
1105.2 88.7 54.3
1090.2 80.7 54.3
1101.1 74.4 54.3
1101.1 67.4 54.3
1670.1 -958.3 54.7
1599.3 -933.5 54.5
1545.2 -949.3 54.3
1326.2 -943.1 53.7
1310.2 -938.3 53.7
1287.2 -944.3 53.6
1201.2 -932.2 53.3
1201.1 -947.8 53.3
1185.2 -940.4 53.3
1170.1 -941.3 53.2
1150.2 -936.8 53.2
1142.2 -936.3 53.2
1138.2 -939.7 53.2
1111.2 -934.2 53.1
1107.1 -944.3 53.1
1099.1 -943.0 53.0
1084.1 -948.2 53.0
1064.1 -940.5 52.9
1060.1 -942.9 52.9
1064.0 -967.5 52.9
1059.9 -976.5 52.9
1063.8 -1001.2 52.9
1063.7 -1008.0 52.9
1055.6 -1038.9 52.8
1063.4 -1068.8 52.8
1107.2 446.6 47.8
1107.1 432.6 47.8
1115.1 429.0 47.7
1107.0 411.5 47.7
1107.0 404.5 47.7
1110.9 385.0 47.7
1102.8 374.9 47.7
1098.7 366.4 47.7
1106.7 362.4 47.7
1102.7 353.9 47.7
1106.6 348.4 47.7
1110.6 342.7 47.6
1102.5 333.0 47.7
1102.5 326.0 47.6
1098.4 310.8 47.6
1106.4 306.2 47.6
1094.3 295.6 47.6
1106.3 292.2 47.6
1102.3 284.1 47.6
1106.2 278.2 47.6
1106.2 271.2 47.6
1102.1 263.1 47.6
1106.1 257.1 47.5
1098.0 248.1 47.6
1106.0 236.1 47.5
1105.9 229.0 47.5
1105.9 222.0 47.5
1105.9 215.0 47.5
1101.8 207.2 47.5
1101.8 200.2 47.5
1105.7 194.0 47.5
1101.7 186.2 47.5
1105.6 179.9 47.4
1101.6 172.2 47.4
1101.5 151.3 47.4
1109.4 145.4 47.4
1097.4 136.8 47.4
1101.4 130.3 47.4
1097.3 122.9 47.4
1097.3 115.9 47.4
1101.2 109.4 47.4
1093.2 101.7 47.4
1101.1 95.4 47.4
1101.1 88.4 47.3
1097.1 81.1 47.4
1097.0 74.2 47.3
1093.0 67.0 47.4
1420.0 -946.0 44.5
1373.1 -936.9 44.8
1373.0 -945.9 44.7
1349.0 -944.5 44.9
1318.1 -936.4 45.0
1263.1 -931.7 45.3
1263.1 -940.0 45.3
1255.0 -941.2 45.3
1224.1 -929.6 45.5
1224.1 -937.5 45.4
1201.1 -932.2 45.6
1193.0 -940.2 45.6
1185.0 -940.4 45.6
1170.0 -941.2 45.7
1146.1 -932.9 45.8
1146.0 -940.2 45.8
1055.9 -958.6 46.2
1044.9 -959.6 46.3
1059.7 -996.7 46.1
1051.5 -1034.1 46.1
1055.3 -1059.0 46.1
1111.0 427.3 40.7
1110.9 413.2 40.7
1106.9 404.5 40.7
1102.7 367.9 40.7
1102.6 360.9 40.7
1110.5 349.8 40.6
1110.5 342.7 40.6
1102.4 333.0 40.7
1102.4 326.0 40.7
1098.3 310.8 40.7
1106.3 306.3 40.6
1098.2 296.9 40.7
1106.2 292.2 40.6
1106.1 278.2 40.5
1098.1 269.0 40.6
1106.0 264.1 40.5
1102.0 256.1 40.6
1097.9 248.1 40.6
1101.9 235.2 40.5
1105.8 229.1 40.5
1101.8 221.2 40.5
1101.7 214.2 40.5
1101.7 207.2 40.5
1101.7 200.2 40.5
1105.6 194.0 40.4
1101.5 172.3 40.5
1105.4 158.9 40.4
1101.4 151.3 40.4
1105.3 144.8 40.4
1093.3 136.3 40.5
1101.2 130.3 40.4
1101.2 123.3 40.4
1105.2 116.8 40.3
1097.1 109.0 40.4
1093.1 101.7 40.5
1097.0 95.1 40.4
1097.0 88.1 40.4
1090.0 80.7 40.5
1096.9 74.2 40.4
1100.9 67.4 40.3
1372.9 -945.9 35.7
1333.9 -949.7 36.1
1263.0 -931.7 37.0
1231.9 -936.8 37.4
1208.9 -939.6 37.7
1192.9 -940.2 37.9
1192.9 -947.9 37.9
1169.9 -941.2 38.1
1153.9 -940.7 38.3
1142.0 -936.3 38.5
1141.9 -943.6 38.5
1111.0 -934.2 38.9
1102.9 -940.1 39.0
1094.9 -938.9 39.1
1080.0 -937.0 39.2
1079.9 -943.9 39.2
1056.0 -931.8 39.5
1059.8 -963.0 39.5
1055.8 -972.0 39.5
1059.6 -996.6 39.4
1051.4 -1034.1 39.5
1055.2 -1059.0 39.4
1115.0 450.3 33.6
1102.9 430.8 33.8
1106.9 425.6 33.7
1106.8 411.5 33.7
1110.8 406.2 33.6
1106.6 369.4 33.6
1102.5 360.9 33.7
1102.4 347.0 33.7
1106.4 341.4 33.6
1106.3 334.3 33.6
1110.3 328.6 33.5
1102.3 319.0 33.7
1106.2 313.3 33.6
1106.2 306.3 33.6
1102.1 298.1 33.6
1106.1 292.2 33.6
1106.0 278.2 33.5
1102.0 270.1 33.6
1097.9 262.1 33.7
1097.9 255.1 33.7
1097.8 248.2 33.7
1097.8 234.2 33.6
1105.7 222.0 33.5
1105.6 215.0 33.5
1109.6 208.8 33.4
1097.6 199.4 33.6
1101.5 193.2 33.5
1109.5 187.7 33.3
1105.4 172.9 33.4
1105.3 158.9 33.4
1109.2 145.4 33.3
1093.1 129.4 33.6
1105.1 123.8 33.3
1101.1 116.4 33.4
1101.0 109.4 33.4
1093.0 101.7 33.5
1100.9 95.4 33.4
1096.9 88.1 33.5
1092.9 80.9 33.5
1092.8 74.0 33.5
1092.8 67.1 33.5
1669.6 -958.3 20.7
1208.8 -939.5 29.8
1208.7 -955.2 29.8
1184.8 -940.3 30.3
1169.8 -941.2 30.6
1133.9 -928.4 31.3
1133.9 -935.7 31.3
1114.8 -938.2 31.7
1110.8 -948.4 31.7
1094.8 -938.9 32.1
1075.8 -939.7 32.4
1063.8 -940.4 32.7
1059.8 -942.8 32.8
1055.7 -958.6 32.8
1047.7 -963.0 33.0
1051.6 -987.5 32.9
1051.3 -1027.5 32.8
1059.2 -1043.7 32.6
1059.1 -1063.9 32.6
1133.8 -928.4 24.0
1129.8 -931.7 24.1
1110.8 -934.1 24.7
1106.7 -944.2 24.8
1075.8 -932.8 25.6
1075.7 -939.6 25.6
