399.7 277.8 84.4
394.6 268.8 83.6
399.7 279.5 82.7
393.6 270.9 81.9
409.7 278.8 84.1
414.7 279.0 84.8
402.6 279.6 81.4
399.6 274.4 81.0
403.6 275.6 81.5
409.6 271.8 82.3
414.6 273.6 83.0
420.7 276.3 83.8
427.7 279.8 84.7
405.6 277.8 80.1
407.6 278.3 80.3
411.6 273.9 80.8
427.6 270.4 82.8
428.6 269.5 82.9
438.6 271.5 84.2
442.7 273.3 84.7
436.6 265.6 83.9
404.6 278.4 78.3
412.6 275.0 79.2
413.6 274.3 79.3
415.6 274.7 79.5
419.6 277.1 80.0
420.6 270.8 80.1
421.6 270.0 80.2
432.6 273.4 81.5
444.7 277.2 82.9
436.6 267.6 82.0
440.6 269.4 82.4
454.6 267.9 84.0
400.6 280.6 76.1
402.6 276.2 76.3
405.5 272.7 76.6
430.6 281.0 79.4
428.6 273.3 79.1
430.6 273.4 79.4
434.6 275.4 79.8
436.6 275.4 80.0
438.6 271.5 80.2
440.6 267.4 80.4
442.6 267.3 80.7
450.6 270.6 81.5
452.6 270.3 81.7
450.6 264.4 81.5
464.6 263.8 83.0
473.6 269.1 84.0
477.6 265.7 84.5
477.6 258.9 84.4
479.6 258.2 84.7
481.6 255.1 84.9
400.6 282.3 74.4
397.5 275.5 74.1
408.6 279.5 75.2
413.6 283.2 75.7
412.5 275.0 75.6
415.5 276.5 75.9
427.5 272.3 77.1
430.6 273.4 77.4
440.6 275.4 78.5
436.5 267.6 78.0
442.5 269.3 78.7
446.6 271.0 79.1
458.6 265.1 80.3
464.6 263.8 80.9
469.6 265.8 81.4
481.6 259.7 82.6
487.6 259.7 83.2
491.6 258.1 83.6
493.6 257.2 83.8
493.5 254.8 83.8
495.5 253.9 84.0
501.6 253.3 84.6
399.5 277.8 72.6
396.5 272.7 72.4
408.5 281.2 73.5
406.5 273.8 73.3
426.5 275.1 75.2
428.5 271.4 75.3
446.5 273.0 77.0
448.5 270.8 77.2
446.5 266.9 77.0
468.5 265.0 79.1
481.6 268.9 80.3
475.5 261.8 79.7
473.5 257.9 79.5
483.5 263.6 80.5
483.5 259.0 80.5
489.5 256.6 81.0
497.5 257.7 81.8
501.5 253.3 82.1
510.5 254.7 83.0
512.5 253.6 83.2
514.5 252.4 83.4
526.6 258.0 84.5
520.5 251.3 83.9
522.5 247.5 84.1
403.5 277.3 71.3
414.5 277.2 72.3
415.5 271.1 72.3
427.5 270.4 73.4
436.5 275.4 74.1
430.5 267.7 73.6
436.5 269.6 74.1
438.5 269.5 74.3
446.5 273.0 75.0
450.5 266.4 75.3
458.5 267.2 76.0
460.5 266.8 76.2
466.5 267.7 76.7
466.5 265.5 76.7
469.5 265.8 77.0
475.5 259.5 77.5
487.5 257.4 78.5
487.5 255.1 78.5
491.5 255.7 78.8
495.5 256.3 79.2
499.5 256.8 79.5
507.5 257.6 80.2
507.5 252.6 80.2
514.5 255.0 80.8
516.5 253.8 81.0
540.5 253.7 83.1
550.5 251.7 83.9
553.5 250.7 84.2
400.4 272.2 69.4
411.5 275.7 70.2
414.5 275.4 70.5
420.5 280.0 70.9
424.5 276.8 71.2
428.5 273.3 71.6
432.5 275.4 71.9
442.5 269.3 72.6
454.5 274.2 73.6
454.5 267.9 73.6
462.5 270.7 74.2
464.5 266.0 74.4
473.4 258.0 75.1
483.5 259.0 75.9
497.5 257.7 76.9
495.4 253.9 76.8
503.5 257.2 77.4
501.4 250.9 77.3
509.5 254.0 77.9
518.5 255.2 78.6
524.5 254.0 79.1
532.5 251.3 79.7
540.5 253.8 80.3
536.5 248.5 80.0
557.5 247.4 81.6
593.5 246.7 84.5
598.5 243.1 84.9
394.4 273.7 67.2
394.4 268.8 67.2
407.5 281.8 68.2
405.4 274.4 68.0
414.5 279.0 68.7
415.4 276.5 68.7
420.5 280.0 69.1
428.4 275.2 69.7
428.4 273.3 69.7
430.4 273.4 69.8
432.4 269.6 69.9
438.4 271.5 70.4
440.4 271.4 70.5
444.4 271.2 70.8
446.4 269.0 70.9
468.5 269.4 72.5
468.4 267.2 72.5
466.4 263.3 72.3
477.5 267.9 73.1
479.4 262.7 73.3
483.4 263.6 73.5
485.4 262.9 73.7
485.4 260.5 73.7
495.5 263.5 74.4
503.4 257.2 75.0
514.4 257.5 75.7
510.4 252.2 75.4
512.4 251.1 75.6
514.4 249.9 75.7
522.4 252.7 76.3
524.4 251.4 76.4
530.4 250.0 76.9
546.5 254.8 78.0
546.4 249.2 78.0
559.4 245.7 78.9
563.4 245.1 79.2
575.5 249.0 80.0
579.5 248.3 80.3
583.5 247.5 80.6
589.5 247.7 81.0
593.5 246.7 81.3
594.4 241.0 81.4
610.5 246.1 82.5
608.5 241.8 82.4
612.5 240.5 82.7
618.5 240.2 83.1
626.5 240.8 83.7
391.4 271.8 65.4
396.4 276.0 65.7
414.4 279.0 66.9
418.4 279.7 67.1
422.5 282.1 67.4
424.4 276.8 67.5
424.4 274.9 67.5
430.4 277.2 67.9
430.4 275.3 67.9
432.4 275.4 68.0
428.4 269.5 67.8
450.5 276.8 69.2
462.4 270.7 69.9
468.4 265.0 70.3
483.4 263.6 71.2
481.4 257.4 71.1
485.4 258.2 71.4
495.4 263.5 72.0
497.4 260.2 72.1
499.4 259.2 72.2
501.4 255.8 72.4
510.4 259.8 72.9
509.4 256.5 72.9
510.4 252.2 72.9
530.4 250.0 74.2
555.4 254.8 75.8
550.4 246.1 75.5
561.4 246.9 76.2
565.4 246.3 76.4
569.4 245.6 76.7
579.4 248.3 77.3
583.4 247.5 77.5
593.4 249.9 78.2
589.4 244.6 77.9
596.4 245.2 78.4
596.4 242.0 78.4
612.4 243.8 79.4
612.4 240.6 79.4
620.4 241.2 79.9
634.4 241.2 80.8
634.4 237.8 80.8
645.4 239.4 81.5
659.5 238.7 82.3
669.5 239.4 83.0
673.5 237.5 83.2
680.5 236.7 83.7
700.5 237.3 84.9
397.4 277.2 64.1
401.4 273.4 64.4
408.4 277.7 64.8
408.4 276.0 64.8
415.4 280.1 65.2
415.4 278.3 65.1
428.4 275.2 65.9
432.4 269.6 66.1
440.4 273.4 66.5
442.4 271.3 66.6
442.4 269.3 66.6
468.4 269.4 68.1
477.4 265.7 68.6
479.4 262.7 68.7
483.4 259.0 68.9
487.4 259.8 69.1
491.4 260.4 69.4
501.4 260.7 69.9
509.4 256.6 70.4
530.4 255.4 71.5
530.3 250.0 71.5
538.4 252.5 72.0
548.4 250.5 72.5
559.4 251.5 73.1
557.4 247.4 73.0
567.3 244.5 73.6
579.4 248.3 74.3
593.4 246.7 75.0
600.4 244.1 75.4
610.4 242.8 76.0
622.4 242.2 76.7
637.4 242.7 77.5
643.4 242.0 77.8
647.4 240.4 78.0
653.4 239.6 78.4
659.4 238.7 78.7
680.4 240.5 79.9
684.4 238.4 80.1
696.4 239.6 80.8
704.4 239.0 81.2
712.4 238.2 81.7
716.4 235.8 81.9
719.4 232.9 82.0
739.5 236.4 83.2
751.5 236.6 83.8
770.5 234.8 84.9
408.4 277.7 63.0
413.4 277.9 63.3
414.4 277.2 63.3
416.3 272.1 63.4
419.3 273.4 63.5
428.4 279.0 64.0
430.3 271.5 64.1
448.4 270.8 64.9
448.3 266.7 64.9
448.3 262.6 64.9
450.3 262.3 65.0
454.3 263.8 65.2
462.3 266.4 65.6
462.3 262.1 65.6
469.3 265.8 65.9
479.4 267.3 66.4
477.3 258.9 66.3
481.3 257.5 66.5
497.3 252.9 67.3
509.3 259.1 67.9
509.3 256.6 67.9
520.3 256.5 68.4
524.3 256.7 68.6
520.3 251.4 68.4
532.3 254.0 69.0
548.3 250.5 69.7
559.3 251.5 70.3
561.3 249.8 70.4
557.3 244.5 70.2
565.3 243.3 70.5
583.4 250.5 71.4
585.3 245.5 71.5
594.3 244.1 71.9
614.3 244.9 72.9
624.4 246.6 73.4
626.3 240.8 73.5
635.3 241.7 73.9
639.3 240.2 74.1
653.4 243.2 74.8
653.3 239.6 74.8
663.3 236.8 75.3
675.4 238.3 75.8
700.4 237.3 77.0
716.4 235.8 77.8
727.4 236.0 78.3
735.4 234.9 78.7
755.4 238.1 79.7
759.4 235.2 79.9
774.4 236.2 80.6
805.4 233.1 82.1
798.4 226.1 81.8
802.4 222.7 81.9
821.4 223.9 82.9
837.4 223.9 83.6
870.3 -809.8 84.2
866.3 -815.5 84.0
850.3 -806.5 83.2
391.3 268.6 60.6
403.3 273.9 61.1
430.3 275.3 62.2
436.4 279.4 62.4
428.3 269.5 62.1
432.3 271.5 62.2
440.3 273.4 62.6
446.3 275.1 62.8
446.3 264.9 62.8
452.3 266.2 63.0
454.3 265.8 63.1
462.3 270.7 63.5
454.3 259.6 63.1
479.3 267.3 64.1
473.3 255.7 63.9
481.3 259.8 64.2
487.3 259.8 64.5
493.3 257.2 64.7
501.3 260.7 65.0
505.3 261.2 65.2
509.3 261.6 65.4
509.3 259.1 65.4
510.3 257.3 65.4
510.3 252.2 65.4
514.3 252.5 65.5
522.3 255.3 65.9
524.3 254.0 66.0
530.3 252.7 66.2
536.3 251.2 66.4
540.3 251.0 66.6
542.3 249.5 66.7
577.3 247.2 68.1
583.3 247.5 68.3
581.3 243.3 68.3
593.3 246.7 68.8
594.3 244.1 68.8
598.3 243.1 69.0
620.3 241.2 69.8
630.3 242.8 70.3
637.3 242.7 70.5
643.3 242.1 70.8
647.3 240.4 70.9
659.3 242.3 71.4
673.3 241.2 72.0
677.3 239.2 72.2
677.3 235.4 72.2
688.3 236.3 72.6
704.3 239.0 73.3
712.3 238.2 73.6
712.3 234.2 73.6
731.3 237.6 74.4
739.3 236.4 74.7
755.4 238.2 75.3
778.4 237.7 76.3
809.4 234.5 77.5
798.3 226.1 77.1
802.3 222.7 77.2
821.3 223.9 78.0
837.3 223.9 78.7
884.4 227.6 80.6
895.4 225.4 81.0
927.4 228.8 82.3
934.4 225.0 82.6
966.4 227.6 83.9
985.5 226.5 84.7
999.3 -819.4 84.2
991.3 -817.5 83.8
967.3 -810.9 82.9
963.3 -818.7 82.7
952.3 -818.8 82.3
944.3 -816.1 81.9
932.2 -820.3 81.4
921.3 -813.8 81.0
909.2 -817.1 80.5
889.3 -810.7 79.7
866.2 -815.5 78.8
850.3 -806.5 78.1
399.3 279.5 59.2
402.3 279.6 59.3
405.3 276.1 59.4
409.3 278.8 59.6
412.3 276.8 59.7
421.4 282.9 60.0
421.3 275.5 60.0
414.2 266.5 59.7
430.3 271.5 60.2
432.3 271.5 60.3
450.3 268.5 60.9
456.3 267.6 61.1
456.3 265.5 61.1
469.3 265.8 61.5
469.3 263.6 61.5
475.3 264.1 61.7
481.3 266.6 61.9
481.3 259.8 61.9
483.2 259.0 62.0
501.3 263.2 62.6
491.2 253.3 62.2
499.2 256.8 62.5
509.3 261.6 62.8
505.2 256.2 62.7
526.2 250.1 63.4
538.2 252.5 63.8
550.2 251.7 64.2
552.2 250.1 64.3
559.2 251.5 64.5
563.2 251.0 64.6
563.2 248.0 64.6
567.2 247.4 64.8
591.2 245.7 65.5
598.2 246.3 65.8
604.2 246.2 66.0
618.3 250.2 66.4
616.2 242.6 66.4
626.2 244.2 66.7
639.3 243.7 67.1
653.3 243.2 67.6
659.3 242.3 67.8
671.3 244.1 68.2
665.2 237.7 68.0
675.2 238.4 68.3
680.2 236.7 68.5
696.3 239.6 69.0
700.3 237.4 69.1
712.3 238.3 69.5
751.3 236.7 70.8
778.3 237.7 71.7
782.3 234.5 71.9
786.3 231.3 72.0
802.3 232.1 72.5
798.2 226.1 72.4
802.2 222.7 72.5
825.3 225.2 73.3
829.2 221.5 73.4
872.3 229.4 74.8
880.3 226.5 75.1
891.3 224.3 75.5
969.4 228.4 78.0
993.4 228.5 78.8
1001.4 224.3 79.1
1032.4 225.4 80.1
1048.4 222.7 80.7
1055.4 217.6 80.9
1075.4 215.3 81.5
1091.3 211.8 82.1
1110.3 208.7 82.7
1141.3 200.4 83.7
1145.3 193.8 83.8
1149.1 172.5 83.9
1149.1 165.1 83.9
1149.1 157.8 83.9
1149.0 143.1 83.9
1148.9 135.8 83.9
1144.9 128.0 83.7
1148.8 121.1 83.9
1144.8 113.4 83.7
1144.8 106.0 83.7
1144.7 98.7 83.7
1152.7 92.0 84.0
1148.6 84.4 83.8
1144.6 76.8 83.7
1148.5 69.7 83.8
1148.5 62.3 83.8
1140.4 54.7 83.5
1140.4 47.4 83.5
1144.4 40.2 83.6
1140.3 32.9 83.5
1133.2 11.1 83.2
1136.1 -3.4 83.3
1136.1 -10.7 83.3
1129.0 -17.6 83.1
1125.0 -24.7 82.9
1135.9 -32.4 83.3
1132.9 -39.5 83.2
1132.8 -46.7 83.2
1132.8 -54.0 83.2
1132.8 -61.2 83.1
1132.7 -68.4 83.1
1124.7 -74.8 82.9
1120.6 -81.6 82.7
1128.6 -89.6 83.0
1124.5 -96.3 82.8
1124.5 -103.5 82.8
1132.5 -111.8 83.1
1128.4 -118.4 82.9
1128.4 -125.6 82.9
1124.3 -132.2 82.8
1132.3 -140.7 83.0
1124.3 -146.5 82.8
1124.2 -153.7 82.8
1120.2 -160.1 82.6
1128.1 -168.8 82.9
1120.1 -174.4 82.6
1120.0 -181.5 82.6
1116.0 -187.8 82.5
1124.0 -196.7 82.7
1115.9 -202.0 82.4
1123.9 -211.1 82.7
1115.8 -216.2 82.4
1111.8 -229.3 82.3
1115.7 -237.5 82.4
1115.7 -244.6 82.4
1119.6 -252.9 82.5
1115.6 -258.9 82.4
1115.5 -266.0 82.4
1115.5 -273.1 82.3
1119.5 -281.5 82.5
1115.4 -294.4 82.3
1111.3 -300.1 82.2
1111.3 -307.2 82.2
1103.3 -311.4 81.9
1111.2 -321.4 82.2
1115.1 -337.1 82.3
1202.2 -838.8 84.6
1100.2 -823.8 81.3
1100.2 -830.8 81.2
1092.2 -837.4 81.0
1077.2 -830.2 80.5
1057.2 -824.8 79.8
1038.2 -826.3 79.2
1034.2 -828.9 79.1
1014.2 -815.5 78.4
1010.2 -817.9 78.3
1003.2 -823.4 78.0
991.2 -817.4 77.7
948.2 -820.4 76.2
924.2 -817.1 75.4
913.1 -821.7 75.1
885.2 -806.0 74.2
889.2 -816.1 74.3
866.2 -815.5 73.5
850.2 -806.5 73.0
846.2 -811.8 72.9
398.3 278.4 57.5
420.3 274.5 58.1
427.3 278.0 58.3
423.2 268.3 58.2
428.2 269.5 58.3
434.3 273.5 58.4
438.3 273.5 58.5
436.3 269.6 58.5
448.3 272.9 58.8
446.3 269.0 58.7
452.3 268.2 58.9
454.3 267.9 58.9
458.3 269.4 59.0
462.2 264.3 59.1
469.3 268.0 59.3
469.2 265.8 59.3
473.3 266.9 59.4
473.2 264.7 59.4
475.2 264.1 59.5
479.2 262.8 59.6
505.2 261.2 60.2
507.2 257.6 60.3
518.2 257.8 60.6
518.2 255.2 60.6
520.2 254.0 60.6
524.2 254.1 60.7
528.2 254.1 60.8
532.2 254.0 60.9
546.2 257.6 61.3
553.2 250.7 61.5
553.2 247.9 61.5
577.2 250.2 62.1
583.2 247.5 62.2
589.2 244.6 62.4
598.2 246.3 62.6
602.2 245.2 62.7
606.2 244.0 62.8
626.2 240.8 63.3
632.2 240.3 63.5
645.2 239.5 63.8
667.2 242.3 64.4
669.2 239.5 64.4
692.2 238.0 65.0
708.2 240.7 65.4
708.2 236.6 65.4
731.2 237.6 66.0
743.2 238.0 66.3
759.2 239.7 66.7
766.2 237.8 66.9
770.2 234.8 67.0
782.2 234.5 67.3
794.2 234.1 67.6
798.2 230.8 67.7
798.2 221.4 67.7
809.1 220.2 68.0
837.2 223.9 68.7
876.2 230.6 69.7
880.2 226.5 69.8
903.2 227.7 70.4
927.3 228.8 71.0
989.3 227.5 72.6
997.3 223.3 72.8
1020.3 222.6 73.4
1055.3 217.6 74.2
1075.3 215.3 74.8
1091.2 211.9 75.2
1106.2 208.0 75.5
1118.2 203.2 75.8
1134.2 199.1 76.2
1145.2 193.8 76.5
1153.1 187.9 76.7
1145.0 164.6 76.5
1153.0 158.4 76.7
1156.9 151.5 76.8
1144.9 142.6 76.5
1148.8 135.8 76.5
1148.8 128.4 76.5
1148.7 121.1 76.5
1148.7 113.7 76.5
1148.7 106.4 76.5
1148.6 99.1 76.5
1144.6 91.4 76.4
1140.5 83.9 76.3
1148.5 77.0 76.5
1148.4 69.7 76.5
1148.4 62.3 76.5
1144.3 54.9 76.3
1140.3 47.4 76.2
1140.3 40.2 76.2
1140.2 32.9 76.2
1144.2 25.6 76.3
1136.1 11.1 76.1
1144.0 3.7 76.3
1129.0 -3.2 75.9
1136.0 -10.7 76.1
1132.9 -17.8 76.0
1139.9 -25.4 76.1
1132.8 -32.3 76.0
1132.8 -39.5 75.9
1128.7 -46.4 75.8
1132.7 -54.0 75.9
1135.7 -61.4 76.0
1132.6 -68.4 75.9
1128.6 -75.2 75.8
1128.5 -82.4 75.8
1124.5 -89.2 75.7
1124.4 -96.3 75.7
1124.4 -103.5 75.7
1120.4 -110.1 75.5
1132.3 -119.0 75.8
1132.3 -126.3 75.8
1128.2 -132.8 75.7
1124.2 -139.4 75.6
1124.1 -146.5 75.6
1128.1 -154.4 75.7
1120.1 -160.1 75.5
1124.0 -168.0 75.6
1124.0 -175.2 75.6
1115.9 -180.6 75.4
1127.9 -190.4 75.7
1123.9 -196.7 75.5
1119.8 -202.9 75.4
1111.8 -208.1 75.2
1119.7 -217.2 75.4
1119.6 -231.5 75.4
1119.6 -238.6 75.4
1115.5 -258.8 75.3
1123.4 -275.6 75.4
1119.3 -281.5 75.3
1115.3 -287.3 75.2
1107.3 -291.7 75.0
1119.2 -302.9 75.3
1111.2 -307.2 75.1
1111.2 -314.3 75.1
1123.1 -325.8 75.4
1119.1 -331.4 75.3
1115.0 -337.0 75.2
1249.1 -837.3 78.0
1249.1 -845.4 78.0
1241.1 -847.1 77.8
1225.1 -842.0 77.4
1202.1 -838.7 76.8
1186.1 -840.7 76.4
1167.1 -839.6 75.9
1139.1 -830.0 75.2
1128.1 -827.6 74.9
1081.1 -834.0 73.7
1061.1 -828.6 73.2
1049.1 -830.4 72.9
1030.1 -824.9 72.4
1018.1 -819.5 72.1
1018.1 -825.9 72.1
999.1 -825.6 71.7
987.1 -819.5 71.4
971.1 -815.1 70.9
963.1 -818.7 70.7
940.1 -811.7 70.2
921.1 -813.8 69.7
866.1 -815.5 68.3
846.1 -801.6 67.8
842.1 -806.8 67.7
395.2 274.9 55.8
392.2 269.8 55.7
401.2 273.4 55.9
407.3 278.4 56.0
409.3 277.1 56.1
415.3 280.1 56.2
417.3 276.8 56.2
423.3 277.6 56.3
428.2 271.4 56.4
430.2 271.5 56.4
434.2 273.5 56.5
464.2 263.8 57.0
471.2 265.3 57.2
475.2 266.3 57.2
479.2 262.8 57.3
481.2 257.5 57.3
491.2 262.8 57.5
499.2 259.2 57.7
499.2 256.8 57.6
518.2 255.2 58.0
524.2 256.7 58.1
526.2 255.4 58.1
528.2 254.1 58.2
534.2 255.3 58.3
542.2 255.1 58.4
546.2 252.0 58.5
546.1 249.2 58.5
552.2 250.1 58.6
557.2 250.3 58.7
573.1 247.9 59.0
573.1 244.9 59.0
573.1 241.9 59.0
581.1 243.3 59.1
593.2 246.8 59.3
594.1 244.1 59.3
651.1 242.3 60.4
667.2 242.3 60.7
671.1 240.4 60.7
677.1 239.2 60.8
684.1 238.4 61.0
704.1 239.0 61.3
712.1 234.2 61.5
723.1 234.5 61.7
747.2 239.5 62.1
759.1 235.3 62.3
778.2 237.7 62.7
782.2 234.6 62.7
798.2 235.5 63.0
798.1 230.8 63.0
802.1 222.7 63.1
825.1 225.2 63.5
841.1 225.2 63.8
868.1 228.2 64.3
887.2 228.5 64.6
903.2 227.7 64.9
923.2 227.7 65.3
930.1 223.9 65.4
969.2 228.4 66.1
989.2 227.5 66.4
1016.2 228.0 66.9
1028.2 224.5 67.1
1044.2 221.8 67.4
1059.2 218.5 67.7
1075.2 215.3 68.0
1098.2 213.3 68.4
1118.1 203.3 68.7
1134.1 199.1 69.0
1137.0 192.4 69.1
1149.0 187.2 69.3
1148.9 165.2 69.2
1152.8 158.4 69.3
1160.8 152.1 69.4
1148.8 143.1 69.2
1148.7 135.8 69.2
1144.7 128.0 69.1
1148.6 121.1 69.2
1156.6 114.5 69.3
1140.5 105.7 69.0
1148.5 99.1 69.2
1144.5 91.4 69.1
1140.4 83.9 69.0
1140.4 76.6 69.0
1140.3 69.3 69.0
1152.3 62.5 69.2
1152.2 55.1 69.2
1140.2 47.5 69.0
1140.1 40.2 68.9
1136.1 32.8 68.9
1140.1 25.6 68.9
1140.0 18.3 68.9
1136.0 11.1 68.8
1147.9 3.6 69.0
1132.9 -3.3 68.8
1128.8 -10.4 68.7
1139.8 -18.1 68.9
1128.8 -24.8 68.7
1135.7 -32.4 68.8
1135.7 -39.7 68.8
1132.6 -46.7 68.7
1132.6 -53.9 68.7
1132.5 -61.2 68.7
1128.5 -68.0 68.6
1128.5 -75.2 68.6
1124.4 -82.0 68.5
1124.4 -89.2 68.5
1128.3 -96.8 68.6
1124.3 -103.5 68.5
1120.3 -110.1 68.4
1120.2 -117.2 68.4
1128.2 -125.6 68.5
1120.1 -131.5 68.4
1124.1 -139.3 68.4
1120.0 -145.8 68.4
1124.0 -153.7 68.4
1112.0 -158.5 68.2
1111.9 -165.6 68.2
1123.9 -175.2 68.4
1127.8 -183.2 68.5
1119.8 -188.6 68.3
1123.7 -196.7 68.4
1123.7 -203.9 68.4
1119.6 -217.2 68.3
1115.5 -230.4 68.2
1119.5 -238.6 68.2
1119.4 -252.9 68.2
1111.3 -264.7 68.1
1115.3 -273.1 68.1
1115.2 -280.2 68.1
1103.2 -283.3 67.9
1111.2 -293.0 68.0
1111.1 -300.1 68.0
1115.1 -308.6 68.1
1123.0 -325.8 68.2
1118.9 -331.4 68.1
1106.9 -334.0 67.9
1249.0 -837.3 69.9
1241.0 -839.0 69.7
1241.0 -847.0 69.7
1225.0 -842.0 69.4
1159.0 -832.7 68.3
1139.0 -830.0 67.9
1135.0 -833.8 67.8
1100.0 -823.7 67.2
1100.0 -830.8 67.2
1092.0 -837.3 67.1
1065.0 -825.7 66.6
1057.0 -824.8 66.4
991.0 -829.8 65.2
971.0 -815.1 64.9
956.1 -811.2 64.6
940.0 -811.7 64.4
921.0 -813.8 64.0
913.0 -821.7 63.9
893.0 -815.3 63.5
881.1 -806.7 63.3
866.0 -815.5 63.0
850.0 -806.4 62.7
842.0 -806.8 62.6
414.2 279.0 54.4
415.2 274.7 54.4
421.2 275.5 54.4
428.2 279.0 54.5
432.2 277.3 54.5
430.2 271.5 54.5
440.2 275.4 54.6
436.2 269.6 54.6
444.2 273.2 54.7
448.2 270.8 54.7
460.2 271.1 54.8
468.2 265.0 54.9
471.2 265.3 54.9
475.2 264.1 55.0
483.1 259.0 55.1
487.1 257.4 55.1
499.2 261.7 55.2
505.2 261.2 55.3
509.1 256.6 55.3
516.1 253.8 55.4
522.1 252.7 55.5
526.1 252.8 55.5
528.1 251.4 55.5
532.1 251.4 55.6
540.1 253.8 55.6
575.1 249.1 56.0
585.1 248.6 56.1
587.1 246.6 56.1
591.1 245.7 56.2
593.1 243.6 56.2
602.1 245.2 56.3
616.1 249.2 56.4
620.1 244.6 56.5
620.1 241.3 56.5
628.1 241.8 56.5
634.1 241.3 56.6
647.1 240.4 56.7
659.1 242.3 56.9
665.1 241.4 56.9
675.1 242.1 57.0
680.1 240.5 57.1
684.1 238.4 57.1
704.1 239.0 57.3
700.1 233.4 57.3
747.1 239.5 57.8
751.1 236.7 57.8
774.1 236.3 58.1
778.1 233.2 58.1
794.1 234.1 58.3
798.1 230.8 58.3
802.0 227.4 58.4
821.0 223.9 58.5
837.0 224.0 58.7
876.1 230.6 59.1
884.1 227.6 59.2
903.1 227.7 59.4
927.1 228.8 59.7
934.1 225.0 59.7
993.1 228.5 60.4
1005.1 225.3 60.5
1028.1 224.5 60.7
1036.1 219.9 60.8
1079.1 216.2 61.2
1091.0 211.9 61.4
1110.0 208.8 61.6
1114.0 202.5 61.6
1137.0 199.7 61.8
1152.9 187.9 62.0
1148.9 179.9 61.9
1144.8 164.6 61.9
1148.7 157.8 61.9
1160.7 152.1 62.0
1144.6 142.6 61.8
1148.6 135.8 61.9
1152.6 128.9 61.9
1148.5 121.1 61.8
1148.5 113.8 61.8
1140.4 105.7 61.7
1144.4 98.8 61.8
1152.3 92.0 61.9
1148.3 84.4 61.8
1144.3 76.8 61.8
1148.2 69.7 61.8
1148.2 62.4 61.8
1140.1 54.8 61.7
1140.1 47.5 61.7
1144.0 40.3 61.7
1144.0 32.9 61.7
1140.0 25.6 61.6
1139.9 18.3 61.6
1135.9 11.1 61.6
1132.8 -3.3 61.5
1135.7 -10.7 61.6
1132.7 -17.8 61.5
1132.7 -25.0 61.5
1132.6 -32.2 61.5
1128.6 -39.2 61.4
1132.5 -46.7 61.5
1128.5 -53.6 61.4
1132.4 -61.2 61.5
1132.4 -68.4 61.5
1128.4 -75.2 61.4
1124.3 -82.0 61.4
1124.3 -89.1 61.3
1120.2 -95.8 61.3
1124.2 -103.5 61.3
1124.1 -110.7 61.3
1132.1 -119.0 61.4
1120.1 -124.4 61.3
1120.0 -131.5 61.2
1124.0 -139.3 61.3
1127.9 -147.2 61.3
1123.9 -153.7 61.3
1119.9 -160.1 61.2
1119.8 -167.2 61.2
1123.8 -175.2 61.2
1127.7 -183.2 61.3
1115.7 -187.7 61.1
1119.6 -195.8 61.2
1119.6 -202.9 61.2
1119.6 -210.0 61.1
1119.5 -217.2 61.1
1119.5 -224.3 61.1
1119.4 -231.5 61.1
1115.4 -237.5 61.1
1115.4 -244.6 61.1
1119.3 -260.0 61.1
1115.2 -265.9 61.0
1115.2 -273.0 61.0
1115.1 -280.2 61.0
1107.1 -284.6 60.9
1115.1 -294.4 61.0
1115.0 -301.5 61.0
1107.0 -305.8 60.9
1110.9 -314.3 60.9
1106.9 -319.9 60.9
1118.8 -331.4 61.0
1110.8 -335.5 60.9
1209.9 -837.5 61.3
1170.9 -827.9 60.9
1158.9 -832.7 60.8
1142.9 -833.5 60.6
1134.9 -833.8 60.6
1099.9 -823.7 60.2
1095.9 -827.1 60.2
1087.9 -833.6 60.1
1064.9 -825.6 59.8
1056.9 -824.8 59.8
1037.9 -819.7 59.6
1037.9 -832.8 59.5
1017.9 -819.5 59.4
1013.9 -821.9 59.3
990.9 -829.8 59.1
970.9 -815.1 58.9
962.9 -818.7 58.8
955.9 -817.2 58.7
892.9 -815.3 58.0
881.0 -806.7 57.9
865.9 -815.5 57.8
846.0 -801.6 57.6
845.9 -811.8 57.6
399.2 279.5 52.5
404.2 281.9 52.5
398.2 271.7 52.5
407.2 278.4 52.5
410.2 278.2 52.6
408.2 270.8 52.5
413.2 274.4 52.6
416.2 275.8 52.6
418.2 272.4 52.6
428.2 271.4 52.6
434.2 273.5 52.6
440.2 275.4 52.6
442.2 269.3 52.6
495.1 258.7 52.8
501.1 260.7 52.8
509.1 256.6 52.8
520.1 256.6 52.8
520.1 254.0 52.8
526.1 252.8 52.9
528.1 251.4 52.9
534.1 252.7 52.9
540.1 253.8 52.9
552.1 252.9 52.9
553.1 247.9 52.9
561.1 246.9 53.0
575.1 249.1 53.0
589.1 247.7 53.0
596.0 245.2 53.1
600.0 244.1 53.1
610.1 246.1 53.1
616.0 242.6 53.1
616.0 239.3 53.1
634.1 244.7 53.2
641.0 241.1 53.2
645.0 239.5 53.2
657.0 241.4 53.2
667.0 242.3 53.3
673.0 241.3 53.3
688.0 240.2 53.3
700.0 241.3 53.4
708.0 240.7 53.4
708.0 236.7 53.4
739.0 236.4 53.5
747.0 235.2 53.5
766.0 237.8 53.5
774.0 236.3 53.6
778.0 233.2 53.6
790.0 232.7 53.6
798.0 230.8 53.6
808.9 220.2 53.6
837.0 224.0 53.7
895.0 225.4 53.9
915.0 225.5 54.0
938.0 226.1 54.0
989.0 227.5 54.2
1020.0 222.6 54.3
1032.0 219.0 54.3
1059.0 218.6 54.4
1070.9 214.5 54.4
1093.9 212.5 54.5
1109.9 208.8 54.5
1113.9 202.5 54.5
1129.9 198.4 54.5
1148.8 194.6 54.6
1148.8 187.2 54.6
1144.8 179.2 54.6
1148.7 172.5 54.6
1148.7 165.2 54.6
1144.6 157.3 54.5
1152.6 151.0 54.6
1148.5 143.2 54.5
1148.5 135.8 54.5
1152.5 128.9 54.5
1148.4 121.1 54.5
1152.4 114.2 54.5
1144.3 106.1 54.5
1148.3 99.1 54.5
1148.2 91.7 54.5
1148.2 84.4 54.5
1140.1 76.6 54.4
1140.1 69.3 54.4
1136.1 61.9 54.4
1144.0 54.9 54.4
1136.0 47.4 54.4
1139.9 40.2 54.4
1132.9 32.8 54.4
1139.8 25.6 54.4
1143.8 18.3 54.4
1143.8 11.0 54.4
1147.7 3.6 54.4
1132.6 -10.5 54.3
1135.6 -17.9 54.3
1132.5 -25.0 54.3
1128.5 -32.0 54.3
1132.5 -39.5 54.3
1132.4 -46.7 54.3
1128.4 -53.6 54.2
1128.3 -60.8 54.2
1128.3 -68.0 54.2
1128.2 -75.2 54.2
1132.2 -82.8 54.2
1124.2 -89.1 54.2
1124.1 -96.3 54.2
1124.1 -103.5 54.2
1124.0 -110.6 54.1
1124.0 -117.8 54.1
1124.0 -125.0 54.1
1115.9 -130.9 54.1
1127.9 -140.0 54.1
1127.8 -147.2 54.1
1123.8 -153.7 54.1
1115.8 -159.3 54.1
1119.7 -167.2 54.1
1123.7 -175.2 54.1
1119.6 -181.5 54.0
1119.6 -188.6 54.0
1119.5 -195.8 54.0
1115.5 -201.9 54.0
1123.4 -211.0 54.0
1119.4 -224.3 54.0
1115.3 -230.4 54.0
1119.3 -238.6 54.0
1115.2 -251.7 53.9
1119.1 -267.2 53.9
1111.1 -271.8 53.9
1111.0 -278.9 53.9
1107.0 -284.6 53.9
1107.0 -291.7 53.9
1118.9 -302.8 53.9
1114.9 -308.6 53.9
1110.8 -314.3 53.9
1106.8 -319.9 53.8
1106.7 -334.0 53.8
1279.7 -845.2 53.7
1248.8 -837.2 53.6
1232.8 -840.5 53.6
1216.8 -835.4 53.5
1170.8 -827.9 53.4
1099.8 -830.7 53.2
1084.8 -830.8 53.1
1060.8 -821.8 53.1
1060.8 -828.6 53.1
1041.8 -823.6 53.0
1029.8 -824.9 53.0
1021.8 -823.4 53.0
1013.8 -821.9 52.9
990.8 -817.4 52.9
982.8 -821.5 52.9
970.9 -815.1 52.8
966.8 -822.9 52.8
959.8 -821.4 52.8
939.9 -811.7 52.7
920.9 -813.7 52.7
908.8 -817.1 52.6
888.9 -810.6 52.6
884.9 -811.4 52.6
869.8 -820.3 52.5
849.9 -806.4 52.5
399.2 279.5 50.8
398.2 276.7 50.8
398.2 273.4 50.8
404.2 276.7 50.8
409.2 278.8 50.8
407.1 269.7 50.8
402.1 262.6 50.8
415.2 274.7 50.8
424.2 278.7 50.7
434.2 273.5 50.7
440.2 275.4 50.7
438.1 271.5 50.7
442.1 269.3 50.6
450.2 272.7 50.6
450.1 266.5 50.6
458.1 263.0 50.6
462.1 264.3 50.5
469.1 265.8 50.5
473.1 264.7 50.5
481.1 266.7 50.4
475.1 259.6 50.5
485.1 260.6 50.4
491.1 262.8 50.4
489.1 259.0 50.4
497.1 262.6 50.4
491.1 255.7 50.4
503.1 259.7 50.3
507.1 255.2 50.3
518.1 257.8 50.3
518.1 255.2 50.3
526.1 258.0 50.2
518.0 250.1 50.3
528.0 254.1 50.2
530.0 252.7 50.2
540.0 253.8 50.2
542.0 252.3 50.1
548.0 253.3 50.1
552.0 253.0 50.1
563.0 248.1 50.0
577.0 250.2 50.0
573.0 244.9 50.0
577.0 244.2 50.0
591.0 248.8 49.9
604.0 246.3 49.9
604.0 243.0 49.8
618.0 243.6 49.8
634.0 244.7 49.7
637.0 239.3 49.7
645.0 239.5 49.7
657.0 241.4 49.6
661.0 239.6 49.6
673.0 241.3 49.5
666.9 234.9 49.5
692.0 238.0 49.4
708.0 240.7 49.4
708.0 236.7 49.4
734.9 234.9 49.2
755.0 238.2 49.1
762.0 236.4 49.1
765.9 233.4 49.1
773.9 231.8 49.0
781.9 230.0 49.0
793.9 229.5 49.0
797.9 226.1 48.9
808.9 220.2 48.9
836.9 224.0 48.7
890.9 224.3 48.5
918.9 226.6 48.4
945.9 228.3 48.2
968.9 228.4 48.1
984.9 226.5 48.1
1000.9 224.3 48.0
1019.9 222.6 47.9
1039.9 220.9 47.8
1058.9 218.6 47.7
1074.9 215.4 47.6
1090.8 211.9 47.6
1101.8 207.2 47.5
1113.8 202.5 47.4
1129.8 198.4 47.4
1140.7 193.1 47.3
1152.7 187.9 47.2
1144.6 179.2 47.3
1148.6 172.5 47.2
1140.6 164.0 47.3
1144.5 157.3 47.2
1152.5 151.0 47.2
1144.4 142.7 47.2
1148.4 135.8 47.2
1144.3 128.0 47.2
1144.3 120.7 47.2
1144.3 113.4 47.2
1144.2 106.1 47.2
1144.2 98.8 47.2
1140.1 91.2 47.2
1140.1 83.9 47.2
1140.0 76.6 47.1
1140.0 69.3 47.1
1144.0 62.2 47.1
1143.9 54.9 47.1
1139.9 47.5 47.1
1135.8 40.1 47.1
1139.8 32.9 47.1
1143.7 25.7 47.1
1135.7 18.4 47.1
1139.7 11.1 47.1
1135.6 -3.4 47.1
1132.5 -17.8 47.1
1135.4 -25.1 47.0
1132.4 -32.2 47.0
1135.4 -39.6 47.0
1124.3 -46.1 47.1
1135.3 -54.2 47.0
1132.2 -61.1 47.0
1128.2 -68.0 47.0
1128.1 -75.2 47.0
1124.1 -82.0 47.0
1124.1 -89.1 47.0
1124.0 -96.3 47.0
1128.0 -104.0 47.0
1119.9 -110.1 47.0
1119.9 -117.2 47.0
1127.8 -125.6 46.9
1119.8 -131.5 47.0
1127.8 -140.0 46.9
1119.7 -145.8 47.0
1123.7 -153.7 46.9
1123.6 -160.8 46.9
1123.6 -168.0 46.9
1123.6 -175.2 46.9
1123.5 -182.3 46.9
1119.5 -188.6 46.9
1115.4 -194.8 46.9
1123.4 -203.8 46.9
1119.3 -210.0 46.9
1115.3 -216.2 46.9
1115.3 -223.3 46.9
1115.2 -230.4 46.9
1119.2 -238.6 46.8
1115.1 -251.7 46.8
1111.0 -264.7 46.8
1115.0 -273.0 46.8
1114.9 -280.1 46.8
1102.9 -283.3 46.9
1106.9 -291.7 46.8
1114.8 -301.5 46.8
1106.8 -305.8 46.8
1110.7 -314.2 46.8
1114.7 -322.8 46.7
1110.6 -335.5 46.8
1248.7 -837.2 45.5
1232.6 -840.5 45.5
1224.6 -842.0 45.6
1130.7 -822.9 46.0
1134.7 -833.7 46.0
1099.7 -823.7 46.2
1095.7 -827.1 46.2
1080.7 -827.0 46.3
1068.7 -829.4 46.3
1060.7 -828.6 46.3
1045.7 -827.4 46.4
962.7 -818.7 46.8
955.8 -817.2 46.8
947.7 -820.3 46.9
923.8 -817.1 47.0
908.8 -817.1 47.1
888.8 -810.6 47.2
880.8 -806.7 47.2
865.8 -815.4 47.3
865.7 -820.7 47.3
849.8 -806.4 47.4
841.8 -806.8 47.4
398.1 273.4 49.2
405.1 276.1 49.1
401.1 268.3 49.1
405.1 271.0 49.1
410.1 272.9 49.0
417.2 276.8 48.9
434.1 273.5 48.7
434.1 267.7 48.7
446.1 275.1 48.6
448.1 270.8 48.6
456.1 271.8 48.5
456.1 267.6 48.5
464.1 266.0 48.4
464.1 263.8 48.4
471.1 267.5 48.3
469.1 261.4 48.3
475.1 264.1 48.2
483.1 268.3 48.1
477.1 261.2 48.2
481.0 257.5 48.1
481.0 255.2 48.1
495.0 258.7 48.0
501.0 258.3 47.9
501.0 253.4 47.9
510.0 257.3 47.8
512.0 253.6 47.8
516.0 253.8 47.7
526.0 258.0 47.6
520.0 251.4 47.7
528.0 254.1 47.6
534.0 255.4 47.5
532.0 251.4 47.5
542.0 255.1 47.4
544.0 253.6 47.4
546.0 252.0 47.3
553.0 253.6 47.3
563.0 248.1 47.1
575.0 249.1 47.0
577.0 247.2 47.0
579.0 245.3 46.9
589.0 247.7 46.8
599.9 244.2 46.7
608.0 245.1 46.6
619.9 244.6 46.4
628.0 245.2 46.3
633.9 244.7 46.3
640.9 241.1 46.2
644.9 239.5 46.1
656.9 241.4 46.0
666.9 242.3 45.9
674.9 242.1 45.8
687.9 240.2 45.6
695.9 239.7 45.5
695.9 235.7 45.5
703.9 235.1 45.4
718.9 237.0 45.2
722.9 234.5 45.2
742.9 238.0 44.9
746.9 235.2 44.9
758.9 235.3 44.7
769.9 234.8 44.6
785.9 231.4 44.4
797.9 230.8 44.2
801.8 227.4 44.2
797.8 221.4 44.2
801.8 218.0 44.2
832.8 222.8 43.8
875.8 225.3 43.3
898.8 226.6 43.0
984.8 226.5 42.0
1000.8 224.3 41.8
1023.8 223.6 41.5
1039.8 220.9 41.3
1054.8 217.7 41.1
1074.8 215.4 40.8
1086.7 211.1 40.7
1101.7 207.2 40.5
1109.7 201.8 40.4
1121.6 196.9 40.3
1133.6 191.9 40.1
1148.6 187.2 39.9
1144.5 179.2 39.9
1148.5 172.5 39.9
1148.5 165.2 39.9
1148.4 157.9 39.9
1156.4 151.6 39.8
1144.3 142.7 39.9
1148.3 135.8 39.8
1148.2 128.5 39.8
1140.2 120.3 39.9
1148.2 113.8 39.8
1148.1 106.5 39.8
1144.1 98.8 39.8
1144.0 91.5 39.8
1140.0 83.9 39.9
1139.9 76.6 39.9
1143.9 69.5 39.8
1139.8 62.1 39.8
1135.8 54.6 39.9
1139.8 47.5 39.8
1139.7 40.2 39.8
1135.7 32.9 39.9
1135.6 25.6 39.9
1139.6 18.4 39.8
1143.5 11.0 39.7
1143.5 3.7 39.7
1135.5 -3.4 39.8
1132.4 -10.5 39.8
1128.4 -17.6 39.9
1128.2 -46.4 39.8
1132.2 -53.9 39.8
1128.1 -60.8 39.8
1124.1 -67.6 39.9
1128.0 -75.2 39.8
1128.0 -82.4 39.8
1124.0 -89.1 39.8
1123.9 -96.3 39.8
1119.9 -102.9 39.9
1123.8 -110.6 39.8
1123.8 -117.8 39.8
1119.7 -124.3 39.8
1123.7 -132.1 39.8
1127.7 -140.0 39.7
1111.6 -144.3 39.9
1127.6 -154.4 39.7
1123.5 -160.8 39.8
1119.5 -167.2 39.8
1123.4 -175.2 39.7
1123.4 -182.3 39.7
1115.4 -187.7 39.8
1115.3 -194.8 39.8
1119.3 -202.9 39.7
1119.2 -217.2 39.7
1115.2 -223.3 39.8
1115.1 -230.4 39.8
1115.1 -237.5 39.8
1111.0 -250.5 39.8
1110.9 -264.7 39.8
1114.9 -273.0 39.7
1110.8 -278.8 39.7
1106.8 -284.6 39.8
1106.8 -291.7 39.8
1110.7 -300.1 39.7
1110.7 -307.2 39.7
1106.6 -312.8 39.8
1110.6 -321.3 39.7
1110.5 -335.5 39.7
1271.5 -838.9 37.0
1248.5 -837.2 37.3
1240.5 -847.0 37.4
1232.5 -848.5 37.5
1130.6 -822.9 38.8
1127.6 -827.5 38.8
1095.6 -820.1 39.2
1095.6 -827.1 39.2
1084.6 -830.8 39.3
1064.6 -825.6 39.6
1060.6 -828.5 39.6
1048.6 -830.3 39.8
1029.6 -824.9 40.0
1017.7 -819.4 40.2
1013.6 -821.8 40.2
998.6 -825.6 40.4
982.6 -821.5 40.6
970.7 -815.1 40.7
959.7 -815.5 40.9
955.7 -817.1 40.9
951.6 -824.7 41.0
920.7 -813.7 41.4
908.7 -817.1 41.5
888.7 -810.6 41.7
884.7 -811.4 41.8
394.1 275.4 47.6
394.1 272.1 47.6
398.1 273.4 47.5
410.1 280.0 47.3
409.1 271.8 47.3
416.1 275.8 47.2
421.1 275.5 47.1
423.1 272.0 47.0
427.1 270.4 46.9
434.1 273.5 46.8
438.1 273.5 46.7
446.1 275.1 46.6
448.1 270.8 46.5
456.1 271.8 46.4
462.1 272.9 46.2
460.0 262.6 46.3
471.1 267.5 46.1
473.0 264.7 46.0
483.1 268.3 45.8
477.0 261.2 45.9
487.0 262.1 45.7
481.0 255.2 45.8
489.0 259.0 45.7
493.0 257.2 45.6
499.0 259.3 45.5
509.0 264.1 45.3
576.9 247.2 43.9
574.9 243.1 44.0
590.9 248.8 43.7
601.9 245.2 43.4
605.9 244.1 43.4
623.9 246.6 43.0
634.9 245.2 42.8
648.9 241.4 42.5
658.9 242.4 42.3
666.9 242.3 42.2
670.9 240.4 42.1
672.8 237.5 42.0
687.9 240.2 41.7
691.8 238.0 41.7
707.9 240.7 41.3
711.8 238.3 41.3
742.8 238.0 40.6
750.8 236.7 40.5
754.8 233.8 40.4
769.8 234.8 40.1
789.8 232.8 39.7
797.8 230.8 39.6
797.8 226.1 39.5
793.7 220.2 39.6
804.7 218.9 39.4
836.7 224.0 38.8
875.7 225.4 38.0
894.7 225.5 37.6
937.7 226.1 36.8
980.7 225.5 35.9
1000.7 224.3 35.5
1027.7 224.5 35.0
1035.7 220.0 34.8
1054.7 217.7 34.5
1070.6 214.5 34.1
1090.6 211.9 33.7
1101.6 207.2 33.5
1113.6 202.5 33.3
1125.5 197.7 33.0
1140.5 193.2 32.7
1152.5 187.9 32.5
1148.4 179.9 32.6
1144.4 171.9 32.6
1148.3 165.2 32.5
1144.3 157.3 32.6
1156.3 151.6 32.4
1148.2 143.2 32.5
1148.2 135.8 32.5
1144.1 128.1 32.6
1144.1 120.7 32.6
1140.0 113.1 32.6
1148.0 106.5 32.5
1144.0 98.8 32.5
1139.9 91.2 32.6
1143.9 84.2 32.5
1143.8 76.9 32.5
1147.8 69.7 32.4
1139.7 62.1 32.6
1139.7 54.8 32.6
1132.7 47.3 32.7
1139.6 40.2 32.5
1135.6 32.9 32.6
1139.5 25.7 32.5
1132.5 18.4 32.7
1135.4 11.1 32.6
1143.4 3.7 32.4
1135.4 -3.4 32.6
1128.3 -10.4 32.7
1132.3 -17.7 32.6
1132.2 -25.0 32.6
1128.2 -32.0 32.7
1132.1 -39.4 32.6
1132.1 -46.7 32.6
1132.1 -53.9 32.6
1132.0 -61.1 32.6
1120.0 -67.2 32.8
1127.9 -75.2 32.6
1127.9 -82.4 32.6
1119.9 -88.6 32.8
1123.8 -96.3 32.7
1119.8 -102.9 32.7
1123.7 -110.6 32.6
1119.7 -117.2 32.7
1127.6 -125.6 32.5
1123.6 -132.1 32.6
1123.6 -139.3 32.6
1123.5 -146.5 32.6
1119.5 -152.9 32.7
1119.4 -160.0 32.7
1123.4 -168.0 32.6
1119.3 -174.3 32.6
1123.3 -182.3 32.6
1119.3 -188.6 32.6
1119.2 -195.7 32.6
1123.2 -203.8 32.5
1115.1 -209.0 32.7
1119.1 -217.1 32.6
1115.1 -223.2 32.7
1123.0 -232.5 32.5
1111.0 -236.4 32.7
1114.9 -251.7 32.6
1114.8 -265.9 32.6
1110.8 -271.8 32.7
1110.7 -278.8 32.7
1110.7 -285.9 32.7
1102.7 -290.3 32.8
1106.6 -298.7 32.7
1106.6 -305.7 32.7
1110.5 -314.2 32.6
1106.5 -319.8 32.7
1106.4 -326.9 32.7
1110.4 -335.5 32.6
1134.5 -826.4 31.4
1130.5 -830.2 31.5
1087.5 -819.7 32.4
1064.5 -825.6 32.8
1052.5 -820.9 33.1
1045.5 -827.4 33.2
1033.5 -828.8 33.4
1021.5 -823.4 33.7
1013.5 -821.8 33.8
998.5 -825.6 34.1
986.5 -825.6 34.4
955.6 -811.2 35.0
955.6 -817.1 35.0
951.5 -824.7 35.1
916.6 -809.3 35.8
904.6 -812.5 36.0
888.6 -810.6 36.3
884.6 -811.4 36.4
865.6 -815.4 36.8
869.5 -825.5 36.7
857.6 -816.2 36.9
849.6 -816.7 37.1
427.1 270.4 45.0
434.1 273.5 44.9
440.1 275.4 44.7
440.1 273.4 44.7
442.0 269.3 44.6
446.0 269.0 44.5
454.0 270.1 44.3
458.0 269.4 44.2
464.0 266.0 44.0
466.0 265.5 44.0
471.0 267.5 43.8
475.0 266.3 43.7
481.0 266.7 43.6
475.0 259.6 43.7
499.0 261.7 43.1
503.0 262.2 43.0
509.0 264.1 42.8
509.0 256.6 42.8
511.9 251.1 42.7
526.0 258.0 42.3
527.9 254.1 42.3
529.9 252.8 42.2
535.9 254.0 42.0
539.9 253.8 41.9
545.9 254.8 41.8
545.9 252.1 41.8
554.9 254.8 41.5
564.9 249.2 41.2
568.9 245.7 41.1
572.9 245.0 41.0
580.9 246.4 40.8
586.9 246.6 40.6
595.9 245.2 40.4
605.9 247.3 40.1
605.9 244.1 40.1
619.9 244.6 39.7
654.8 236.9 38.8
683.8 238.5 38.0
691.8 238.0 37.8
711.8 242.3 37.2
711.8 238.3 37.2
715.8 235.8 37.1
722.8 234.5 36.9
734.8 234.9 36.6
750.8 236.7 36.2
761.8 236.4 35.9
769.8 234.9 35.6
777.7 233.2 35.4
781.7 230.0 35.3
797.7 230.8 34.9
801.7 227.4 34.8
793.7 220.2 35.0
804.6 218.9 34.7
828.7 221.5 34.0
871.7 224.2 32.8
898.7 226.6 32.1
910.7 224.4 31.8
929.6 224.0 31.3
976.6 224.5 30.0
996.6 223.4 29.4
1023.6 223.6 28.7
1031.6 219.0 28.5
1058.6 218.6 27.7
1074.6 215.4 27.3
1093.5 212.5 26.8
1105.5 208.0 26.4
1109.5 201.8 26.3
1121.4 196.9 26.0
1136.4 192.5 25.6
1152.4 187.9 25.1
1144.3 179.3 25.3
1148.3 172.6 25.2
1152.2 165.8 25.1
1148.2 157.9 25.2
1152.2 151.1 25.1
1144.1 142.7 25.3
1144.1 135.4 25.3
1140.0 127.6 25.4
1140.0 120.3 25.4
1135.9 112.7 25.5
1143.9 106.1 25.2
1139.8 98.5 25.3
1139.8 91.2 25.3
1143.8 84.2 25.2
1139.7 76.6 25.3
1139.7 69.4 25.3
1143.6 62.2 25.2
1139.6 54.8 25.3
1135.5 47.4 25.4
1139.5 40.2 25.3
1132.5 32.9 25.4
1135.4 25.7 25.4
1132.4 18.4 25.4
1135.3 11.1 25.3
1139.3 3.8 25.2
1132.2 -3.3 25.4
1132.2 -17.7 25.4
1132.1 -25.0 25.4
1128.1 -32.0 25.5
1132.0 -39.4 25.4
1132.0 -46.7 25.3
1134.9 -54.1 25.3
1127.9 -60.8 25.4
1131.9 -68.3 25.3
1131.8 -75.6 25.3
1131.8 -82.8 25.3
1119.7 -88.6 25.6
1119.7 -95.8 25.6
1119.7 -102.9 25.6
1123.6 -110.6 25.5
1123.6 -117.8 25.5
1123.5 -124.9 25.5
1115.5 -130.8 25.7
1127.4 -140.0 25.3
1119.4 -145.7 25.5
1123.4 -153.6 25.4
1123.3 -160.8 25.4
1115.3 -166.4 25.6
1115.2 -173.5 25.6
1123.2 -182.3 25.4
1123.2 -189.5 25.4
1115.1 -194.8 25.6
1123.1 -203.8 25.4
1111.0 -208.0 25.7
1119.0 -217.1 25.5
1122.9 -225.3 25.3
1118.9 -231.4 25.4
1114.9 -237.5 25.5
1114.8 -251.7 25.5
1110.7 -264.7 25.6
1110.7 -271.7 25.6
1114.6 -280.1 25.5
1106.6 -284.6 25.7
1106.6 -291.6 25.7
1106.5 -298.7 25.7
1106.5 -305.7 25.7
1110.4 -314.2 25.5
1110.3 -328.4 25.5
1110.3 -335.5 25.5
1076.4 -823.3 25.8
1064.4 -825.6 26.1
1052.4 -820.9 26.4
402.1 274.5 44.0
402.0 269.4 44.0
405.0 271.0 43.9
407.0 269.7 43.8
415.1 274.7 43.6
425.1 279.7 43.2
417.0 269.6 43.5
424.0 273.1 43.3
427.0 270.4 43.2
434.0 273.5 42.9
438.0 273.5 42.8
444.1 277.2 42.6
442.0 269.3 42.6
450.0 272.7 42.4
452.0 268.3 42.3
482.9 259.0 41.2
488.9 259.0 41.0
500.9 258.3 40.6
500.9 255.8 40.6
517.9 255.2 40.0
527.9 254.1 39.6
535.9 256.7 39.3
531.9 251.4 39.5
537.9 252.5 39.3
545.9 252.1 39.0
549.9 251.7 38.8
556.9 250.3 38.6
552.8 245.1 38.7
562.8 248.1 38.4
574.8 249.1 38.0
576.8 247.2 37.9
590.8 248.8 37.4
603.8 246.3 37.0
607.8 245.1 36.8
619.8 244.6 36.4
636.8 246.2 35.8
640.8 241.2 35.7
650.8 242.3 35.3
656.7 237.8 35.1
670.8 240.4 34.6
683.7 238.5 34.2
691.7 238.0 33.9
738.7 236.5 32.2
750.7 236.7 31.8
758.7 235.3 31.5
765.7 233.4 31.3
769.7 230.4 31.1
789.7 232.8 30.5
797.7 230.8 30.2
793.6 220.2 30.3
801.6 218.0 30.0
820.6 219.1 29.4
867.6 223.0 27.7
894.6 225.5 26.8
898.6 221.1 26.6
945.5 222.5 25.0
980.5 225.5 23.8
1031.5 219.1 22.0
1144.2 179.3 18.0
1148.2 172.6 17.9
1148.1 165.2 17.9
1136.1 156.2 18.3
1148.0 150.5 17.8
1152.0 143.7 17.7
1144.0 135.4 18.0
1135.9 127.2 18.2
1139.9 120.4 18.1
1147.8 113.8 17.8
1143.8 106.1 17.9
1139.7 98.5 18.1
1135.7 90.9 18.2
1143.7 84.2 17.9
1135.6 76.4 18.2
1143.6 69.6 17.9
1139.5 54.8 18.0
1132.4 47.3 18.2
1135.4 32.9 18.1
1135.3 18.4 18.1
1132.2 11.2 18.2
1139.2 3.8 17.9
1128.1 -3.2 18.3
1132.1 -10.5 18.2
1132.1 -17.7 18.2
1135.0 -25.1 18.0
1128.0 -32.0 18.3
1127.9 -39.2 18.3
1127.9 -46.4 18.3
1131.8 -53.9 18.1
1131.8 -61.1 18.1
1131.8 -68.3 18.1
1127.7 -75.2 18.2
1131.7 -82.8 18.1
1123.6 -89.1 18.3
1123.6 -96.3 18.3
1123.6 -103.4 18.3
1123.5 -110.6 18.3
1127.5 -118.4 18.2
1127.4 -125.6 18.2
1119.4 -131.5 18.4
1119.3 -138.6 18.4
1115.3 -145.0 18.5
1123.3 -153.6 18.3
1119.2 -160.0 18.4
1119.2 -167.2 18.4
1119.1 -174.3 18.4
1119.1 -181.4 18.4
1115.1 -187.7 18.5
1119.0 -195.7 18.3
1119.0 -202.9 18.3
1118.9 -210.0 18.3
1114.9 -216.1 18.5
1122.8 -225.3 18.2
1114.8 -230.3 18.4
1118.8 -238.5 18.3
1110.7 -243.4 18.6
1110.6 -257.6 18.5
1110.6 -264.7 18.5
1110.6 -271.7 18.5
1110.5 -278.8 18.5
1110.5 -285.9 18.5
1106.4 -291.6 18.6
1114.4 -301.4 18.4
1098.4 -302.9 18.9
1110.3 -314.2 18.5
1110.3 -321.3 18.5
1110.2 -328.4 18.5
396.1 277.7 42.6
397.1 277.2 42.5
399.1 277.9 42.5
396.0 271.1 42.6
412.1 280.4 41.9
427.0 270.4 41.3
432.0 271.6 41.1
436.0 271.6 40.9
442.0 269.3 40.6
448.0 270.8 40.4
456.0 271.9 40.0
460.0 271.2 39.9
461.9 262.2 39.8
469.0 265.8 39.5
475.0 266.4 39.2
478.9 265.1 39.1
482.9 266.0 38.9
478.9 258.2 39.0
482.9 259.0 38.9
500.9 263.2 38.1
498.9 259.3 38.2
523.9 256.7 37.1
521.8 252.7 37.2
529.9 255.4 36.9
531.9 254.1 36.8
539.8 253.8 36.5
539.8 251.1 36.4
547.8 253.3 36.1
549.8 251.7 36.0
558.8 254.4 35.6
556.8 250.3 35.7
562.8 248.1 35.5
576.8 250.2 34.9
576.8 247.2 34.9
578.8 245.3 34.8
592.8 249.9 34.2
603.8 246.3 33.7
607.8 245.1 33.6
623.8 246.6 32.9
625.7 244.3 32.8
629.7 242.8 32.6
633.7 241.3 32.5
640.7 241.2 32.2
646.7 240.4 31.9
656.7 241.5 31.5
666.7 242.3 31.1
670.7 240.4 30.9
687.7 240.2 30.2
691.7 238.0 30.0
695.7 235.8 29.8
707.7 236.7 29.3
715.7 235.9 29.0
742.7 238.0 27.8
754.6 238.2 27.3
761.6 236.4 27.0
773.6 236.3 26.5
777.6 233.2 26.3
781.6 230.0 26.2
789.6 228.1 25.8
804.5 219.0 25.2
820.5 219.1 24.5
867.5 223.0 22.5
399.0 272.8 40.8
408.0 270.8 40.3
417.0 276.8 39.9
422.0 276.6 39.6
428.0 271.4 39.3
430.0 271.5 39.2
442.0 277.3 38.6
438.0 271.5 38.8
459.9 262.6 37.7
468.9 265.8 37.3
474.9 266.4 37.0
476.9 265.7 36.9
478.9 265.1 36.8
476.9 261.2 36.9
482.9 259.0 36.6
490.9 260.5 36.2
502.9 262.2 35.6
504.9 261.2 35.5
511.9 261.2 35.1
508.8 256.6 35.3
517.8 257.8 34.8
525.8 258.1 34.4
521.8 252.7 34.6
527.8 254.1 34.3
533.8 255.4 34.0
533.8 252.7 34.0
541.8 255.1 33.6
545.8 254.9 33.4
572.8 248.0 32.1
588.8 250.9 31.3
590.7 248.8 31.2
593.7 247.3 31.0
597.7 246.3 30.8
601.7 245.2 30.6
605.7 244.1 30.4
619.7 248.0 29.7
625.7 247.7 29.4
625.7 244.3 29.4
631.7 243.8 29.1
648.7 241.4 28.3
672.6 241.3 27.1
676.6 239.3 26.8
687.6 240.2 26.3
687.6 236.3 26.3
707.6 240.7 25.3
711.6 238.3 25.1
793.6 243.5 21.0
793.5 234.2 21.0
797.5 221.5 20.8
804.4 219.0 20.4
394.0 275.4 39.4
396.0 276.1 39.3
399.0 272.8 39.1
405.0 276.2 38.8
402.0 269.4 38.9
415.0 280.1 38.2
416.0 275.8 38.1
432.0 273.5 37.2
436.0 275.5 37.0
435.9 269.6 37.0
441.9 269.3 36.6
449.9 272.7 36.2
455.9 271.9 35.8
463.9 270.4 35.4
463.9 263.8 35.4
468.9 265.9 35.1
494.8 258.7 33.6
498.8 259.3 33.3
500.8 258.3 33.2
517.8 257.8 32.2
523.8 256.7 31.9
525.8 252.8 31.8
529.8 252.8 31.5
527.7 248.8 31.7
541.8 252.3 30.9
547.8 253.3 30.5
547.7 250.5 30.5
554.7 252.0 30.1
556.7 250.3 30.0
572.7 248.0 29.1
590.7 248.8 28.0
595.7 245.2 27.7
605.7 247.3 27.2
607.7 245.1 27.0
662.6 247.9 23.9
668.6 247.0 23.5
672.6 245.0 23.3
793.7 266.8 16.4
801.6 265.2 15.9
797.6 259.0 16.1
797.6 249.6 16.1
793.5 243.5 16.4
793.5 238.8 16.3
793.5 234.2 16.3
797.4 221.5 16.1
410.0 278.2 36.7
408.9 271.9 36.8
422.0 276.6 35.9
431.9 273.5 35.3
431.9 271.6 35.3
435.9 271.6 35.0
437.9 271.5 34.9
435.9 267.7 35.0
445.9 275.1 34.4
455.9 269.8 33.7
463.9 274.7 33.2
470.8 265.3 32.7
474.9 266.4 32.5
478.8 262.8 32.2
478.8 260.5 32.2
484.8 260.6 31.8
486.8 252.8 31.7
502.8 262.2 30.6
519.8 259.2 29.5
521.7 255.4 29.4
531.8 259.4 28.8
529.7 255.4 28.9
529.7 252.8 28.9
543.7 256.4 28.0
551.7 255.8 27.4
554.7 252.0 27.2
556.7 250.3 27.1
566.7 253.4 26.5
574.7 252.1 25.9
576.7 250.2 25.8
588.7 250.9 25.0
592.7 249.9 24.8
597.7 249.5 24.4
595.6 245.3 24.6
722.6 263.4 16.3
399.0 279.5 35.8
404.9 276.2 35.3
407.9 270.8 35.1
414.9 274.7 34.6
427.9 269.6 33.6
433.9 273.5 33.2
437.9 271.5 32.9
435.9 267.7 33.1
441.8 265.3 32.6
451.9 268.3 31.9
455.9 269.8 31.6
457.9 269.4 31.5
453.8 261.7 31.7
467.9 271.6 30.7
474.8 264.1 30.2
480.8 262.1 29.8
484.8 262.9 29.5
484.8 260.6 29.5
515.7 259.0 27.2
519.7 256.6 26.9
523.7 256.7 26.7
527.7 256.8 26.4
539.7 253.8 25.5
398.9 279.5 34.1
411.9 273.3 33.0
416.9 275.0 32.6
418.9 275.3 32.5
422.9 277.6 32.2
427.9 279.0 31.8
429.9 277.3 31.6
429.9 271.5 31.6
433.9 273.5 31.3
433.8 269.6 31.3
441.9 275.4 30.6
451.8 270.4 29.8
455.8 269.8 29.5
457.8 269.4 29.3
461.8 270.8 29.0
463.8 270.4 28.9
465.8 269.9 28.7
468.8 265.9 28.5
470.8 265.3 28.3
482.8 270.6 27.3
482.8 263.7 27.3
482.7 259.1 27.3
500.7 263.2 25.9
508.8 266.6 25.2
509.7 262.4 25.2
511.7 261.3 25.0
513.7 260.1 24.8
402.9 273.9 32.0
405.8 268.6 31.8
417.9 274.3 30.7
420.9 275.6 30.5
435.8 269.6 29.1
443.8 273.2 28.4
447.8 268.8 28.1
453.8 268.0 27.6
468.8 270.3 26.3
467.8 265.0 26.3
480.8 269.0 25.2
478.7 260.5 25.4
484.7 260.6 24.8
502.7 264.7 23.3
398.9 279.5 30.7
398.9 272.8 30.7
403.9 275.1 30.2
408.9 277.1 29.8
415.8 274.0 29.1
419.8 274.5 28.7
423.8 276.8 28.3
426.8 278.0 28.1
429.8 277.3 27.8
431.8 277.4 27.6
435.8 271.6 27.2
441.8 275.4 26.6
457.8 277.9 25.1
463.8 279.0 24.5
467.8 278.2 24.2
463.8 272.5 24.5
408.8 277.1 28.0
412.8 278.0 27.6
426.8 279.9 26.2
429.8 281.1 25.9
396.8 277.2 27.6
401.8 279.6 27.0
404.8 281.3 26.7
407.8 277.8 26.4
413.8 279.0 25.7
425.8 278.9 24.4
429.8 279.2 24.0
401.8 279.6 25.3
405.8 282.5 24.9
413.8 279.0 23.9
416.8 280.5 23.6
