570.8 124.7 82.6
570.8 121.7 82.6
570.7 115.8 82.6
574.7 113.7 82.9
580.7 112.0 83.4
576.7 105.1 83.0
572.6 101.3 82.7
582.6 100.2 83.5
576.6 96.0 83.0
576.6 93.0 83.0
578.6 90.3 83.2
584.6 85.2 83.6
582.5 81.8 83.5
582.5 75.7 83.5
582.5 72.6 83.5
584.5 69.8 83.6
584.5 66.7 83.6
588.4 64.0 83.9
592.4 58.1 84.2
590.4 54.8 84.1
592.4 51.9 84.2
595.4 48.9 84.4
592.3 42.4 84.2
588.3 39.1 83.9
595.3 36.3 84.4
592.3 33.0 84.2
590.2 29.8 84.0
599.2 26.8 84.7
593.2 23.6 84.3
593.2 20.4 84.3
595.2 17.3 84.4
595.2 14.1 84.4
599.1 10.8 84.7
601.1 7.6 84.9
603.0 -15.1 85.0
510.3 397.0 75.6
515.2 379.7 75.9
515.1 372.1 75.9
517.1 369.1 76.0
517.1 361.4 76.0
515.0 356.8 75.9
519.0 345.3 76.1
520.9 339.5 76.3
524.9 337.9 76.5
520.8 323.9 76.2
520.8 318.7 76.2
522.8 317.9 76.4
526.8 316.0 76.7
522.8 310.0 76.4
526.8 308.1 76.6
528.8 307.1 76.8
532.7 291.6 77.1
530.6 282.0 76.9
530.6 279.4 76.9
528.6 272.6 76.7
532.5 270.1 77.0
532.5 267.4 77.0
530.5 263.4 76.9
534.5 263.4 77.2
538.5 260.7 77.4
542.5 260.5 77.7
542.5 257.8 77.7
540.4 242.8 77.6
536.4 237.6 77.3
544.4 239.7 77.8
540.3 231.8 77.5
540.3 229.1 77.5
546.3 229.7 78.0
540.3 223.6 77.5
550.3 223.5 78.2
548.3 219.6 78.1
550.3 217.9 78.2
552.2 210.4 78.4
546.2 201.8 77.9
553.2 202.4 78.4
555.2 200.5 78.6
553.1 193.9 78.4
555.1 191.9 78.6
553.1 188.2 78.4
557.1 187.1 78.7
552.0 182.1 78.3
557.0 178.5 78.7
557.0 175.6 78.7
561.0 171.4 79.0
561.0 165.6 79.0
560.9 162.7 78.9
562.9 160.5 79.1
562.9 154.7 79.1
566.9 150.2 79.4
568.9 147.9 79.5
566.8 144.3 79.3
566.8 138.4 79.3
570.8 136.6 79.6
568.8 133.1 79.5
568.8 130.1 79.5
570.7 127.7 79.6
568.7 124.2 79.5
570.7 121.7 79.6
574.7 119.7 79.9
572.7 116.3 79.7
576.7 114.2 80.0
576.7 111.2 80.0
576.6 105.1 80.0
576.6 102.1 80.0
582.6 100.2 80.4
576.6 93.0 80.0
584.5 91.4 80.6
582.5 88.0 80.4
580.5 84.6 80.3
586.5 82.4 80.7
578.5 78.2 80.1
584.5 76.0 80.5
582.4 72.6 80.4
588.4 67.1 80.8
590.4 64.2 80.9
582.4 60.4 80.4
593.4 58.2 81.2
593.3 51.9 81.1
590.3 48.6 80.9
586.3 45.2 80.6
593.3 42.5 81.1
592.3 39.3 81.1
592.2 36.2 81.1
595.2 33.1 81.3
592.2 29.9 81.0
597.2 26.8 81.4
593.2 23.6 81.1
593.1 20.4 81.1
599.1 17.2 81.5
597.1 14.1 81.4
601.1 10.8 81.7
601.1 7.6 81.7
603.0 1.0 81.8
603.0 -2.2 81.8
607.0 -5.7 82.1
605.0 -8.8 81.9
607.0 -12.2 82.1
604.9 -15.3 81.9
602.9 -18.3 81.8
618.9 -23.2 82.9
610.9 -28.9 82.3
614.8 -36.0 82.6
614.8 -39.4 82.6
654.9 -547.9 85.0
650.8 -550.4 84.7
511.3 410.7 73.1
511.2 398.1 73.1
513.2 392.8 73.2
511.1 380.5 73.1
519.1 371.1 73.6
517.0 361.4 73.4
515.0 356.8 73.3
523.0 351.7 73.8
520.9 336.9 73.7
522.9 336.1 73.8
522.8 330.9 73.8
522.8 320.5 73.8
526.8 316.0 74.0
528.7 307.1 74.1
530.6 295.4 74.3
532.6 291.6 74.4
530.6 282.0 74.2
532.5 275.5 74.4
534.5 271.5 74.5
538.5 268.8 74.7
544.4 245.2 75.1
534.3 233.7 74.4
542.3 233.0 74.9
546.3 232.5 75.2
546.3 226.9 75.2
550.2 220.7 75.4
546.2 215.8 75.2
546.1 204.6 75.2
548.1 202.8 75.3
552.1 201.9 75.5
553.1 199.6 75.6
557.1 198.6 75.8
557.1 192.8 75.8
558.9 167.8 75.9
562.9 166.4 76.2
560.9 162.7 76.0
558.9 159.1 75.9
560.9 156.9 76.0
566.9 156.1 76.4
564.8 152.5 76.3
568.8 150.8 76.5
568.8 144.9 76.5
564.8 137.8 76.3
568.8 136.0 76.5
566.7 132.5 76.4
568.7 130.1 76.5
570.7 127.7 76.6
574.7 125.8 76.9
574.7 119.7 76.9
572.6 116.3 76.7
578.6 114.6 77.1
574.6 110.7 76.9
574.6 104.7 76.9
576.6 102.1 77.0
580.5 96.8 77.2
578.5 93.4 77.1
580.5 90.7 77.2
580.5 87.6 77.2
582.5 84.9 77.3
584.4 82.1 77.5
586.4 79.3 77.6
586.4 76.2 77.6
590.4 73.6 77.8
584.4 69.8 77.4
588.4 67.1 77.7
588.3 60.9 77.7
588.3 57.8 77.7
586.3 54.5 77.6
593.3 51.9 78.0
597.3 49.0 78.2
595.2 42.6 78.1
593.2 39.3 78.0
595.2 36.3 78.1
593.2 33.0 78.0
592.2 29.9 77.9
597.1 26.8 78.2
595.1 23.6 78.1
599.1 20.4 78.3
601.1 17.2 78.5
597.1 14.1 78.2
601.0 10.8 78.5
595.0 7.8 78.1
599.0 4.4 78.3
601.0 -2.1 78.4
605.0 -5.5 78.7
604.9 -8.8 78.7
610.9 -12.5 79.1
608.9 -15.6 78.9
604.9 -18.5 78.7
624.9 -23.8 79.9
608.8 -28.7 78.9
618.8 -36.6 79.5
700.0 -529.4 84.2
691.9 -532.8 83.7
684.0 -528.1 83.2
679.9 -535.3 83.0
666.8 -547.1 82.1
652.8 -541.9 81.2
658.8 -552.6 81.6
646.8 -545.6 80.9
642.8 -544.3 80.6
510.2 399.5 70.5
513.2 392.8 70.7
513.1 382.7 70.7
515.1 379.7 70.8
517.1 374.2 70.9
515.0 367.0 70.8
519.0 363.4 71.0
514.9 349.2 70.8
522.9 338.7 71.2
524.9 337.9 71.3
522.8 333.5 71.2
522.8 325.7 71.2
526.8 323.9 71.4
526.7 318.7 71.4
524.7 314.3 71.3
526.7 308.1 71.4
526.6 292.3 71.4
532.6 291.6 71.7
534.6 290.4 71.8
534.5 271.5 71.8
538.5 268.8 72.0
534.4 258.0 71.8
538.4 252.5 72.0
536.3 245.8 71.9
538.3 244.3 72.0
540.3 242.8 72.1
544.3 236.9 72.3
546.2 226.9 72.4
544.2 220.3 72.3
548.2 219.6 72.5
548.2 216.8 72.5
552.2 216.1 72.7
548.1 211.2 72.5
548.1 208.4 72.5
550.1 206.6 72.6
553.0 185.4 72.7
555.0 180.5 72.8
558.9 176.4 73.1
558.9 170.7 73.0
566.9 164.9 73.5
562.8 157.6 73.3
562.8 154.7 73.2
566.8 153.1 73.5
564.8 149.5 73.4
564.7 143.7 73.3
570.7 142.6 73.7
564.7 137.8 73.3
574.7 137.8 73.9
570.7 133.6 73.7
574.7 131.8 73.9
570.6 121.7 73.7
572.6 116.3 73.8
574.6 113.7 73.9
582.6 112.5 74.3
576.6 108.1 74.0
574.5 104.7 73.9
576.5 102.1 74.0
584.5 100.6 74.4
574.5 95.7 73.8
578.5 93.4 74.1
584.5 91.4 74.4
586.4 85.5 74.5
586.4 79.3 74.5
586.4 76.2 74.5
584.3 72.9 74.4
588.3 70.3 74.6
590.3 67.4 74.7
590.3 64.2 74.7
588.3 60.9 74.6
590.3 58.0 74.7
586.2 54.5 74.5
595.2 52.1 75.0
592.2 48.7 74.8
593.2 42.5 74.8
590.2 39.2 74.7
590.1 36.1 74.7
595.1 33.1 74.9
595.1 29.9 74.9
593.1 26.7 74.8
592.1 23.6 74.8
593.0 20.4 74.8
599.0 17.2 75.1
593.0 14.1 74.8
601.0 10.8 75.2
599.0 7.6 75.1
607.0 4.1 75.6
606.9 0.9 75.6
600.9 -2.1 75.2
602.9 -5.4 75.3
600.9 -8.5 75.2
604.9 -12.0 75.4
604.8 -15.3 75.4
606.8 -18.7 75.5
622.8 -23.6 76.4
608.8 -28.7 75.6
614.8 -32.7 76.0
610.7 -35.5 75.7
766.1 -508.9 84.0
758.1 -506.2 83.5
758.1 -510.6 83.5
735.0 -515.1 82.2
739.0 -523.2 82.4
731.0 -519.7 82.0
719.0 -516.3 81.3
719.0 -520.4 81.3
695.9 -529.2 80.0
691.9 -532.8 79.8
683.8 -539.7 79.3
672.8 -538.9 78.7
668.8 -549.4 78.5
654.8 -544.2 77.7
644.7 -553.9 77.2
508.2 407.2 68.0
508.2 399.7 67.9
511.2 400.7 68.1
511.1 393.1 68.1
516.9 358.8 68.3
512.9 347.3 68.1
522.9 351.7 68.6
520.8 336.9 68.5
524.8 332.7 68.7
524.8 327.4 68.7
518.7 319.6 68.4
526.7 323.9 68.8
530.7 324.7 69.0
532.5 291.6 69.0
528.5 277.9 68.8
534.5 276.9 69.1
536.4 270.2 69.2
534.4 266.1 69.1
534.4 263.4 69.1
540.4 259.3 69.4
536.3 253.9 69.2
534.3 241.8 69.0
540.3 242.8 69.3
544.3 239.7 69.5
546.2 238.1 69.6
538.2 230.7 69.2
542.2 230.2 69.4
542.2 227.5 69.4
550.2 229.2 69.8
552.1 207.6 69.9
555.0 203.4 70.0
552.0 196.3 69.9
552.0 187.8 69.8
552.9 185.4 69.9
552.9 182.5 69.9
560.9 174.3 70.3
556.9 169.9 70.1
556.8 167.0 70.1
562.8 166.4 70.3
566.8 164.9 70.5
566.8 159.0 70.5
564.8 155.4 70.4
570.8 154.5 70.7
566.7 150.2 70.5
564.7 146.6 70.4
566.7 144.3 70.5
566.7 138.4 70.5
568.7 136.0 70.6
574.6 131.8 70.9
570.6 124.7 70.7
568.5 115.3 70.6
576.5 114.2 71.0
578.5 108.6 71.0
578.5 105.5 71.0
578.5 99.5 71.0
580.4 96.8 71.1
580.4 93.8 71.1
580.4 90.7 71.1
584.4 88.3 71.3
582.4 84.9 71.2
586.4 82.4 71.4
582.3 78.8 71.2
588.3 76.5 71.5
586.3 73.1 71.4
582.3 69.6 71.2
588.3 67.2 71.5
590.3 64.2 71.6
590.2 61.1 71.6
590.2 58.0 71.6
588.2 54.7 71.5
592.2 51.9 71.7
593.2 48.8 71.7
588.1 45.4 71.4
593.1 42.5 71.7
592.1 36.2 71.6
595.1 33.1 71.8
592.1 29.9 71.6
599.0 26.8 72.0
595.0 23.6 71.8
595.0 20.4 71.8
599.0 17.2 71.9
599.0 14.0 71.9
603.0 10.7 72.1
596.9 4.5 71.8
600.9 1.2 72.0
604.9 -2.3 72.2
604.9 -5.5 72.2
604.8 -12.0 72.2
604.8 -15.3 72.2
608.8 -18.9 72.4
618.8 -23.2 72.9
618.7 -26.5 72.9
614.7 -29.4 72.7
612.7 -32.5 72.6
610.7 -35.5 72.5
868.3 -479.5 84.4
852.3 -483.3 83.7
833.2 -484.1 82.7
817.2 -486.4 82.0
817.2 -491.3 82.0
813.2 -493.0 81.8
805.2 -491.3 81.4
801.2 -492.8 81.2
798.1 -495.0 81.0
798.1 -499.8 81.0
786.1 -503.6 80.4
770.1 -498.9 79.7
762.0 -505.3 79.3
758.0 -506.1 79.1
735.0 -515.1 78.0
731.0 -515.5 77.8
727.0 -515.8 77.6
730.9 -523.9 77.8
718.9 -516.3 77.2
722.9 -524.4 77.4
703.9 -525.6 76.5
699.9 -529.4 76.3
695.8 -529.2 76.1
687.8 -528.5 75.7
670.8 -536.7 74.9
660.8 -540.2 74.4
658.7 -548.9 74.3
646.7 -545.6 73.7
646.7 -549.2 73.7
513.2 413.1 65.7
506.1 397.5 65.4
511.1 400.7 65.6
510.1 392.0 65.5
513.1 392.8 65.6
515.1 392.5 65.7
521.1 386.1 66.0
521.0 378.3 66.0
517.0 371.6 65.8
516.9 361.4 65.8
522.9 362.2 66.0
518.9 353.1 65.8
520.7 326.5 65.9
520.7 321.3 65.9
524.7 322.2 66.0
528.7 323.0 66.2
526.6 316.0 66.1
528.6 304.4 66.2
526.5 292.3 66.1
534.5 293.1 66.4
538.4 268.9 66.5
534.3 263.4 66.4
538.3 257.9 66.5
536.3 253.9 66.4
538.3 249.8 66.5
540.3 248.3 66.6
542.2 230.2 66.7
546.1 226.9 66.8
553.1 222.3 67.1
548.1 216.8 66.9
548.0 208.4 66.9
548.0 205.6 66.9
548.0 202.8 66.9
550.0 201.0 66.9
550.0 198.2 66.9
555.0 197.7 67.1
560.9 188.8 67.4
558.9 185.1 67.3
558.9 179.3 67.3
562.8 169.3 67.4
564.8 164.2 67.5
560.8 159.8 67.3
566.8 159.0 67.6
566.7 156.1 67.6
568.7 153.8 67.7
568.7 147.9 67.7
566.7 144.3 67.6
566.6 141.4 67.6
572.6 140.2 67.8
570.6 133.7 67.7
570.6 130.7 67.7
574.6 128.8 67.9
574.5 122.8 67.9
572.5 119.3 67.8
574.5 116.7 67.9
578.5 114.7 68.0
576.5 111.2 67.9
578.5 108.6 68.0
578.4 105.5 68.0
578.4 99.5 68.0
580.4 96.8 68.1
578.4 93.4 68.0
584.4 91.4 68.2
584.3 85.2 68.2
588.3 82.7 68.4
586.3 79.3 68.3
588.3 76.5 68.4
588.3 73.4 68.4
590.2 70.5 68.5
588.2 67.2 68.4
584.2 63.6 68.2
592.2 58.2 68.5
590.2 54.9 68.4
593.1 52.0 68.5
595.1 48.9 68.6
590.1 45.5 68.4
592.1 42.5 68.5
592.1 39.3 68.5
593.0 36.2 68.5
593.0 33.1 68.5
599.0 30.0 68.8
599.0 26.8 68.8
599.0 23.6 68.8
597.0 20.4 68.7
600.9 17.2 68.8
592.9 14.2 68.5
608.9 10.6 69.1
598.8 1.3 68.7
604.8 -2.3 69.0
606.8 -5.7 69.0
608.8 -9.1 69.1
610.8 -12.5 69.2
608.8 -15.6 69.1
608.7 -18.9 69.1
622.7 -23.6 69.7
618.7 -26.5 69.5
612.7 -29.1 69.3
616.7 -32.9 69.4
616.6 -36.3 69.4
977.5 -448.8 83.7
962.4 -451.9 83.0
950.4 -456.4 82.6
942.4 -457.3 82.2
938.4 -460.6 82.1
930.4 -461.3 81.7
915.3 -462.9 81.1
907.3 -468.8 80.8
895.3 -466.2 80.3
895.3 -471.7 80.3
876.3 -469.3 79.5
880.2 -477.4 79.7
876.2 -479.9 79.5
864.2 -476.6 79.0
864.2 -487.0 79.0
852.2 -483.3 78.5
833.2 -484.1 77.8
801.1 -497.5 76.4
798.0 -499.8 76.3
786.0 -503.6 75.8
762.0 -500.9 74.8
758.0 -506.1 74.7
747.0 -500.5 74.2
754.9 -512.2 74.5
750.9 -521.7 74.4
738.9 -518.9 73.9
730.9 -515.5 73.6
711.8 -521.6 72.8
711.8 -529.8 72.8
703.8 -525.6 72.5
699.8 -525.4 72.3
699.8 -533.4 72.3
695.8 -533.1 72.1
691.8 -532.8 72.0
683.8 -532.0 71.6
683.7 -539.7 71.6
672.7 -538.9 71.2
648.6 -548.0 70.2
642.7 -544.3 70.0
513.2 413.1 63.1
508.1 399.7 63.0
510.1 394.5 63.0
521.0 375.8 63.4
520.9 365.4 63.3
516.8 353.7 63.2
520.8 352.4 63.3
524.8 353.7 63.5
526.8 345.0 63.5
526.8 342.4 63.5
522.7 333.5 63.4
524.7 332.7 63.4
522.7 328.3 63.4
528.7 325.7 63.6
526.6 321.3 63.5
528.6 317.7 63.5
532.6 318.4 63.7
528.6 312.4 63.5
526.5 302.8 63.5
530.5 303.4 63.6
526.5 294.9 63.5
524.5 290.7 63.4
532.5 294.3 63.7
526.4 287.0 63.4
526.4 284.4 63.4
530.4 284.7 63.6
536.3 256.6 63.7
540.3 256.5 63.9
542.2 249.5 63.9
538.2 241.6 63.8
544.2 239.7 64.0
546.2 238.1 64.0
546.1 235.3 64.0
546.1 232.5 64.0
548.1 228.0 64.1
550.1 226.3 64.2
550.1 223.5 64.2
546.0 218.6 64.0
546.0 215.8 64.0
552.0 216.1 64.2
552.0 213.3 64.2
550.0 209.4 64.1
553.0 208.1 64.2
549.9 201.0 64.1
552.9 199.6 64.2
552.9 193.9 64.2
556.9 192.9 64.4
552.9 188.2 64.2
556.9 187.1 64.3
554.8 183.4 64.3
560.8 183.0 64.5
552.8 176.9 64.2
556.8 175.6 64.3
558.8 173.5 64.4
562.8 169.3 64.5
562.8 166.4 64.5
566.7 164.9 64.6
568.7 162.7 64.7
568.7 159.7 64.7
566.7 153.2 64.6
568.7 150.9 64.7
570.6 139.6 64.7
576.6 138.4 64.9
572.6 134.2 64.8
574.6 131.8 64.9
576.5 129.3 64.9
574.5 125.8 64.9
574.5 122.8 64.9
574.5 119.8 64.9
578.5 117.7 65.0
574.4 113.7 64.8
578.4 111.6 65.0
584.4 97.6 65.2
578.3 93.4 65.0
578.3 90.4 65.0
582.3 88.0 65.1
584.3 85.2 65.1
588.3 82.7 65.3
586.3 79.3 65.2
586.2 76.2 65.2
586.2 73.1 65.2
586.2 70.0 65.2
588.2 67.2 65.3
588.2 64.1 65.2
595.1 58.4 65.5
588.1 54.7 65.2
592.1 51.9 65.4
593.1 48.8 65.4
588.1 45.4 65.2
595.0 42.6 65.5
597.0 39.5 65.5
599.0 33.2 65.6
597.0 30.0 65.5
599.0 26.8 65.6
596.9 23.6 65.5
592.9 20.5 65.4
596.9 17.3 65.5
600.9 14.0 65.6
602.9 10.7 65.7
598.8 7.7 65.5
604.8 4.2 65.7
606.8 0.9 65.8
604.8 -2.3 65.7
608.8 -5.8 65.9
604.7 -8.8 65.7
604.7 -12.0 65.7
608.7 -15.6 65.8
608.7 -18.9 65.8
618.7 -23.2 66.2
618.6 -29.8 66.2
616.6 -32.9 66.1
614.6 -36.0 66.0
618.6 -39.9 66.1
977.4 -448.8 77.6
958.4 -449.5 77.0
946.4 -448.1 76.6
946.3 -454.0 76.6
942.3 -457.3 76.4
934.3 -458.1 76.1
926.3 -458.7 75.9
915.3 -462.9 75.5
903.2 -466.1 75.1
899.2 -468.9 75.0
887.2 -466.2 74.6
891.2 -474.3 74.7
876.2 -469.3 74.2
876.2 -474.6 74.2
872.1 -477.0 74.1
864.1 -481.8 73.8
856.1 -481.1 73.5
852.1 -483.3 73.4
833.1 -489.1 72.8
821.0 -489.6 72.4
821.0 -494.5 72.4
801.0 -497.5 71.7
785.9 -503.6 71.2
781.9 -504.8 71.1
761.9 -500.8 70.4
761.9 -505.3 70.4
761.9 -509.7 70.4
746.8 -517.9 69.9
738.8 -518.9 69.6
730.8 -515.5 69.4
726.8 -520.0 69.2
722.8 -520.2 69.1
714.8 -516.4 68.8
714.8 -524.6 68.8
707.8 -525.7 68.6
687.7 -532.4 67.9
683.7 -539.7 67.8
672.7 -538.9 67.4
664.6 -544.8 67.1
656.6 -546.6 66.9
644.6 -543.2 66.5
648.6 -551.6 66.6
640.6 -549.0 66.3
515.2 415.4 60.7
506.0 397.5 60.4
510.1 399.5 60.5
506.0 390.0 60.4
515.0 392.5 60.6
515.0 384.8 60.6
520.9 378.4 60.8
518.9 373.7 60.7
516.8 364.0 60.7
516.8 361.4 60.6
518.8 355.7 60.7
522.8 354.4 60.8
522.8 351.8 60.8
524.7 343.2 60.8
530.5 295.4 60.9
532.4 294.3 61.0
530.4 290.1 60.9
534.4 287.7 61.0
532.4 280.9 61.0
534.3 276.9 61.0
534.3 274.2 61.0
538.3 274.3 61.1
536.3 270.2 61.0
536.3 264.8 61.0
538.2 258.0 61.1
544.2 256.3 61.2
542.2 249.5 61.2
538.1 241.6 61.1
546.1 235.3 61.3
550.1 232.0 61.4
550.1 229.2 61.3
550.1 226.3 61.3
546.0 215.8 61.2
552.0 216.1 61.4
550.0 212.3 61.3
550.0 209.4 61.3
549.9 206.6 61.3
549.9 195.3 61.3
552.9 193.9 61.4
558.9 193.8 61.5
554.8 189.1 61.4
551.8 184.9 61.3
556.8 184.2 61.5
556.8 181.4 61.5
556.8 178.5 61.5
558.8 176.4 61.5
560.8 174.3 61.6
564.7 170.1 61.7
560.7 165.6 61.6
562.7 163.5 61.6
556.7 158.4 61.4
562.7 157.6 61.6
566.6 156.1 61.7
572.6 155.2 61.8
568.6 150.9 61.7
564.6 146.6 61.6
566.6 144.3 61.7
566.6 141.4 61.7
572.6 140.2 61.8
568.5 136.1 61.7
568.5 133.1 61.7
570.5 130.7 61.8
576.5 129.3 61.9
576.5 123.3 61.9
572.4 116.3 61.8
576.4 114.2 61.9
576.4 108.2 61.9
582.4 106.4 62.0
578.3 102.5 61.9
582.3 100.3 62.0
576.3 96.1 61.9
582.3 94.1 62.0
586.3 91.7 62.1
586.3 88.6 62.1
578.2 84.3 61.9
586.2 82.4 62.1
584.2 79.1 62.1
592.2 77.0 62.3
588.2 73.4 62.2
584.1 69.8 62.0
588.1 67.2 62.1
592.1 61.3 62.2
593.1 58.3 62.3
590.1 54.9 62.2
592.0 51.9 62.2
593.0 48.8 62.2
593.0 45.7 62.2
593.0 42.5 62.2
593.0 39.4 62.2
596.9 33.2 62.3
596.9 30.0 62.3
594.9 26.8 62.3
600.9 23.6 62.4
591.9 20.5 62.2
596.8 17.3 62.3
592.8 14.2 62.2
600.8 10.8 62.4
604.8 7.4 62.5
608.8 4.0 62.6
604.8 1.0 62.5
606.7 -5.6 62.5
608.7 -9.0 62.6
610.7 -12.5 62.6
602.7 -15.1 62.4
604.6 -18.5 62.5
620.6 -23.4 62.9
620.6 -26.7 62.9
616.6 -29.6 62.8
616.5 -36.3 62.8
1492.4 -641.3 84.5
1476.4 -643.1 84.1
1461.3 -664.6 83.6
977.3 -448.8 71.5
969.3 -450.1 71.3
958.3 -449.5 71.0
954.3 -453.0 70.9
942.3 -451.5 70.6
930.2 -455.5 70.3
926.2 -458.7 70.2
915.2 -462.9 69.9
903.2 -466.1 69.6
883.2 -463.4 69.1
891.1 -474.3 69.3
876.1 -469.3 68.9
868.1 -474.2 68.7
864.0 -487.0 68.6
852.0 -483.3 68.3
829.0 -486.0 67.7
825.0 -492.7 67.6
817.0 -491.3 67.4
820.9 -499.4 67.5
808.9 -494.5 67.2
793.9 -491.7 66.8
789.9 -507.1 66.7
777.9 -501.3 66.4
750.7 -521.6 65.6
734.8 -515.1 65.2
730.8 -515.5 65.1
718.8 -516.3 64.8
718.7 -520.4 64.8
714.7 -524.6 64.7
707.7 -525.6 64.5
707.7 -533.7 64.5
703.7 -533.6 64.4
695.7 -533.1 64.2
691.7 -532.8 64.1
679.6 -535.3 63.8
658.5 -548.9 63.3
654.5 -551.5 63.2
644.5 -546.7 62.9
644.5 -553.9 62.9
516.9 374.2 58.1
518.9 373.7 58.1
518.8 366.0 58.1
516.8 353.7 58.1
518.7 350.5 58.1
520.7 349.9 58.1
520.7 342.1 58.1
520.6 331.7 58.1
520.6 329.1 58.1
524.6 330.1 58.2
522.6 323.1 58.1
530.6 324.7 58.3
532.6 323.8 58.3
532.5 318.4 58.3
524.5 306.5 58.2
530.4 295.4 58.3
528.4 291.2 58.2
532.4 291.6 58.3
530.4 287.4 58.2
530.3 282.1 58.2
536.3 283.8 58.3
534.3 276.9 58.3
536.3 275.6 58.3
536.3 272.9 58.3
536.3 270.2 58.3
540.3 270.2 58.4
538.2 258.0 58.4
540.2 253.8 58.4
544.2 253.6 58.5
544.2 250.8 58.5
542.1 246.8 58.4
542.1 244.0 58.4
548.1 239.3 58.5
548.0 230.9 58.5
544.0 225.8 58.4
546.0 221.4 58.5
542.0 216.5 58.4
550.0 217.9 58.5
547.9 214.0 58.5
554.9 214.8 58.6
551.9 210.4 58.5
547.9 205.6 58.5
549.9 203.8 58.5
551.9 199.1 58.5
549.8 195.4 58.5
556.8 195.7 58.6
554.8 192.0 58.6
556.8 190.0 58.6
551.8 184.9 58.5
558.8 185.1 58.6
560.8 183.1 58.7
556.7 175.6 58.6
560.7 174.4 58.7
562.7 172.2 58.7
564.7 170.1 58.7
562.7 166.4 58.7
564.7 164.2 58.7
566.6 156.1 58.7
566.6 150.2 58.7
564.5 146.6 58.7
566.5 144.3 58.7
568.5 142.0 58.8
570.5 136.6 58.8
572.5 134.2 58.8
572.5 131.2 58.8
576.5 129.3 58.9
572.4 122.3 58.8
574.4 119.8 58.8
572.4 116.3 58.8
580.3 109.0 58.9
576.3 105.1 58.9
582.3 97.2 59.0
580.2 93.8 58.9
580.2 90.7 58.9
584.2 88.3 59.0
584.2 85.2 59.0
584.2 82.1 59.0
588.2 79.6 59.0
588.1 76.5 59.0
586.1 70.1 59.0
592.1 67.6 59.1
586.1 63.9 59.0
592.1 61.3 59.1
592.0 58.2 59.1
590.0 54.9 59.1
590.0 51.8 59.0
599.0 49.2 59.2
595.0 45.8 59.1
594.9 42.6 59.1
594.9 39.5 59.1
594.9 33.1 59.1
594.9 30.0 59.1
596.9 26.8 59.1
592.8 23.6 59.1
602.8 20.4 59.2
598.8 17.2 59.2
598.8 14.1 59.2
602.7 7.5 59.2
602.7 4.3 59.2
608.7 -2.5 59.3
604.7 -5.5 59.2
616.6 -9.6 59.5
606.6 -12.2 59.3
608.6 -15.6 59.3
608.6 -18.9 59.3
626.6 -24.0 59.6
612.5 -29.1 59.4
616.5 -32.9 59.4
616.5 -36.3 59.4
1492.3 -641.2 74.5
1484.2 -647.1 74.3
1476.1 -662.8 74.2
1461.1 -664.6 73.9
973.2 -446.4 65.4
969.2 -450.1 65.3
962.2 -451.9 65.2
954.2 -453.0 65.0
942.2 -451.5 64.8
938.1 -454.8 64.7
930.1 -455.5 64.6
934.1 -463.8 64.6
919.1 -459.9 64.4
907.1 -463.2 64.2
899.1 -463.4 64.0
887.1 -466.2 63.8
883.0 -468.8 63.7
872.1 -466.5 63.5
859.9 -484.0 63.3
851.9 -483.3 63.1
839.9 -489.5 62.9
828.9 -486.0 62.7
820.9 -489.6 62.6
816.9 -491.3 62.5
816.9 -496.1 62.5
812.8 -497.8 62.4
800.8 -497.5 62.2
781.8 -504.8 61.9
777.8 -505.9 61.8
769.8 -507.9 61.6
765.8 -508.9 61.6
761.8 -509.7 61.5
757.8 -510.5 61.4
742.7 -514.1 61.1
714.7 -524.6 60.6
707.6 -525.6 60.5
703.6 -529.6 60.4
703.6 -533.6 60.4
699.6 -533.4 60.3
691.6 -536.7 60.2
679.6 -535.3 60.0
668.6 -534.4 59.8
666.5 -547.1 59.7
656.5 -546.6 59.6
652.5 -549.1 59.5
642.5 -544.3 59.3
510.0 402.0 55.5
513.0 403.0 55.5
507.9 392.3 55.5
514.9 392.5 55.5
507.9 382.3 55.5
512.9 382.7 55.5
516.8 376.8 55.5
520.8 368.0 55.6
518.8 363.4 55.6
518.7 355.7 55.5
520.7 352.4 55.6
522.7 351.8 55.6
522.6 338.7 55.6
522.6 333.5 55.6
524.6 332.7 55.6
526.5 323.9 55.6
530.5 324.7 55.6
526.4 300.2 55.6
530.4 292.7 55.6
534.4 293.1 55.6
530.3 287.4 55.6
536.3 289.2 55.6
536.3 283.8 55.6
534.2 268.8 55.6
536.2 264.8 55.6
552.8 196.7 55.7
554.8 194.8 55.7
558.7 182.2 55.8
562.7 181.0 55.8
560.7 174.4 55.8
562.7 172.2 55.8
560.6 168.6 55.8
562.6 166.4 55.8
556.6 161.3 55.7
568.6 156.8 55.8
568.5 153.8 55.8
564.5 149.6 55.8
562.5 146.0 55.7
566.5 144.3 55.8
566.5 141.4 55.8
574.5 140.8 55.9
570.4 133.7 55.8
574.4 128.8 55.9
576.4 126.3 55.9
574.4 122.8 55.8
576.4 120.3 55.9
576.3 117.2 55.9
574.3 113.8 55.8
578.3 105.6 55.9
586.2 101.0 55.9
582.2 88.0 55.9
586.1 82.4 55.9
584.1 79.1 55.9
586.1 76.3 55.9
590.1 70.5 55.9
588.0 67.2 55.9
595.0 64.8 56.0
592.0 61.3 56.0
592.0 58.2 55.9
595.0 52.1 56.0
594.9 45.8 56.0
596.9 36.4 56.0
600.8 33.3 56.0
600.8 26.9 56.0
594.8 23.6 55.9
602.8 20.4 56.0
598.8 17.3 56.0
600.7 14.0 56.0
608.7 10.6 56.1
600.7 7.6 56.0
602.7 4.3 56.0
608.7 0.8 56.1
606.6 -2.4 56.0
606.6 -5.6 56.0
610.6 -9.2 56.1
610.6 -12.5 56.1
608.6 -15.6 56.0
614.5 -19.4 56.1
622.5 -23.5 56.2
618.5 -26.5 56.1
612.5 -29.1 56.1
616.5 -32.9 56.1
616.4 -36.3 56.1
616.4 -39.6 56.1
1476.0 -662.7 64.3
1475.9 -672.6 64.3
973.1 -446.4 59.3
969.1 -450.1 59.3
954.1 -447.1 59.1
954.1 -453.0 59.1
946.1 -453.9 59.0
934.1 -452.3 58.9
934.0 -458.1 58.9
930.0 -461.3 58.9
919.0 -459.9 58.7
907.0 -463.2 58.6
903.0 -466.1 58.6
898.9 -474.4 58.5
887.0 -471.6 58.4
871.9 -477.0 58.2
855.9 -481.1 58.1
847.9 -480.3 58.0
820.8 -489.6 57.7
812.8 -488.1 57.6
816.8 -496.1 57.6
808.8 -494.5 57.6
800.8 -497.5 57.5
800.7 -502.2 57.5
777.7 -501.3 57.2
773.7 -502.4 57.2
761.7 -500.8 57.1
757.7 -501.7 57.0
757.7 -506.1 57.0
754.7 -507.8 57.0
750.7 -512.9 56.9
738.7 -510.3 56.8
734.7 -515.1 56.8
734.6 -519.3 56.7
722.6 -520.2 56.6
714.6 -516.4 56.5
711.6 -521.6 56.5
707.6 -529.7 56.5
707.5 -533.7 56.4
683.5 -543.5 56.2
672.5 -538.9 56.1
668.5 -538.2 56.0
662.5 -542.5 56.0
654.5 -544.2 55.9
646.4 -549.1 55.8
644.4 -553.9 55.8
516.7 353.7 53.0
522.7 354.4 53.0
518.6 347.9 53.0
520.6 342.1 53.0
522.6 333.5 52.9
526.6 334.5 53.0
524.5 330.1 53.0
522.5 323.1 52.9
530.5 327.4 53.0
534.5 325.5 53.0
524.4 306.5 52.9
528.4 301.8 52.9
528.3 296.5 52.9
532.3 294.3 52.9
532.3 291.6 52.9
536.3 291.9 52.9
532.3 286.2 52.9
530.2 279.4 52.9
538.3 282.5 52.9
534.2 276.9 52.9
534.2 274.2 52.9
540.2 273.0 52.9
538.2 266.1 52.9
540.2 264.8 52.9
536.1 256.7 52.9
542.1 255.1 52.9
546.1 254.8 52.9
546.1 252.0 52.9
546.1 249.3 52.9
544.0 245.3 52.9
544.0 242.5 52.9
548.0 242.1 52.9
550.0 240.4 52.9
544.0 234.2 52.9
550.0 232.0 52.9
545.9 227.0 52.9
545.9 224.2 52.9
547.9 222.5 52.9
549.9 215.1 52.9
552.8 211.0 52.9
545.8 204.7 52.9
551.8 204.8 52.9
549.8 201.0 52.9
545.8 196.3 52.8
556.8 198.6 52.9
551.7 193.5 52.9
554.7 192.0 52.9
556.7 190.0 52.9
554.7 186.3 52.9
556.7 184.3 52.9
558.7 182.2 52.9
562.7 181.0 52.9
562.6 175.2 52.9
562.6 169.3 52.9
564.6 167.2 52.9
564.6 164.2 52.9
566.5 159.1 52.9
568.5 156.8 52.9
568.5 153.8 52.9
568.5 145.0 52.8
568.4 142.0 52.8
570.4 139.6 52.8
572.4 137.2 52.8
570.4 133.7 52.8
572.4 131.2 52.8
572.4 128.3 52.8
574.3 125.8 52.8
574.3 119.8 52.8
578.3 117.7 52.8
580.3 115.1 52.8
572.2 110.3 52.8
580.2 106.0 52.8
584.2 103.7 52.8
584.2 100.7 52.8
576.2 96.1 52.8
584.2 94.5 52.8
580.1 90.7 52.8
586.1 88.6 52.8
582.1 84.9 52.8
584.1 79.1 52.8
590.1 76.8 52.8
582.0 69.6 52.8
584.0 66.7 52.8
595.0 61.6 52.8
592.9 58.3 52.8
592.9 55.1 52.8
592.9 52.0 52.8
596.9 49.1 52.8
591.9 45.6 52.8
596.9 42.7 52.8
594.8 39.5 52.8
596.8 36.4 52.8
594.8 33.1 52.8
598.8 30.0 52.8
596.8 26.8 52.8
600.7 23.7 52.8
600.7 20.4 52.8
600.7 17.2 52.8
598.7 14.1 52.8
600.7 10.8 52.8
600.6 7.6 52.8
598.6 4.5 52.8
604.6 1.0 52.8
602.6 -2.1 52.8
606.6 -5.6 52.8
612.6 -9.3 52.8
612.5 -12.6 52.8
608.5 -15.6 52.8
608.5 -18.8 52.8
622.5 -23.5 52.8
618.5 -26.5 52.8
616.4 -29.6 52.8
614.4 -32.7 52.8
624.4 -37.3 52.8
1492.0 -641.2 54.6
1475.8 -662.7 54.5
962.0 -445.9 53.3
962.0 -451.9 53.3
954.0 -453.0 53.2
946.0 -453.9 53.2
934.0 -452.3 53.2
930.0 -455.5 53.2
929.9 -461.2 53.1
915.0 -457.3 53.1
910.9 -465.8 53.1
898.9 -463.4 53.1
875.8 -479.9 53.0
851.8 -478.1 52.9
843.8 -477.3 52.9
839.8 -484.4 52.9
820.8 -489.6 52.8
816.7 -491.3 52.8
812.7 -497.7 52.8
777.7 -501.3 52.7
769.7 -498.9 52.6
765.7 -504.4 52.6
757.7 -501.7 52.6
757.6 -510.5 52.6
746.6 -517.9 52.5
734.6 -519.3 52.5
718.6 -516.3 52.5
718.6 -520.4 52.5
714.5 -524.6 52.4
707.5 -529.7 52.4
703.5 -533.6 52.4
699.5 -533.4 52.4
687.5 -532.4 52.4
679.4 -539.1 52.3
675.4 -542.3 52.3
666.4 -547.1 52.3
513.0 413.1 50.5
507.9 399.8 50.5
507.9 392.3 50.5
514.8 384.9 50.4
514.8 374.7 50.4
522.7 370.0 50.4
518.6 355.7 50.4
520.6 352.5 50.4
522.6 351.8 50.4
518.6 340.2 50.4
522.5 333.5 50.3
522.5 330.9 50.3
524.5 330.1 50.3
526.5 324.0 50.3
532.5 323.8 50.3
528.4 315.1 50.3
528.4 309.8 50.3
528.3 301.8 50.3
536.3 297.3 50.2
534.3 293.1 50.2
530.2 287.4 50.2
536.3 289.2 50.2
534.2 282.3 50.2
532.2 278.2 50.2
534.2 276.9 50.2
536.2 275.6 50.2
538.2 274.3 50.2
536.1 270.2 50.2
542.2 271.6 50.2
532.1 262.1 50.2
538.1 263.4 50.2
540.1 259.3 50.2
538.1 255.2 50.2
544.1 256.3 50.1
540.0 251.0 50.2
542.0 249.6 50.1
542.0 241.3 50.1
544.0 239.7 50.1
550.0 240.4 50.1
545.9 235.3 50.1
549.9 232.0 50.1
545.9 221.4 50.1
547.8 205.6 50.1
551.8 204.8 50.0
549.7 201.0 50.0
554.7 197.7 50.0
552.7 191.1 50.0
558.7 190.9 50.0
556.6 184.3 50.0
556.6 181.4 50.0
562.6 181.0 50.0
552.6 174.0 50.0
564.6 175.9 49.9
556.6 169.9 50.0
562.6 169.3 49.9
562.5 163.5 49.9
566.5 162.0 49.9
566.5 159.1 49.9
568.5 153.8 49.9
566.4 147.3 49.9
570.4 145.6 49.9
568.4 142.0 49.9
568.4 139.0 49.9
572.4 137.2 49.9
568.3 133.1 49.9
570.3 130.7 49.9
574.3 128.8 49.8
570.3 124.7 49.9
574.3 122.8 49.8
578.3 120.8 49.8
578.2 117.7 49.8
576.2 114.2 49.8
572.2 110.3 49.8
578.2 108.6 49.8
580.2 106.0 49.8
584.1 100.7 49.8
584.1 97.6 49.8
580.1 93.8 49.8
578.1 90.4 49.8
586.1 88.6 49.7
584.1 85.2 49.7
588.0 82.7 49.7
586.0 79.4 49.7
588.0 76.5 49.7
586.0 73.2 49.7
588.0 70.3 49.7
588.0 67.2 49.7
589.9 64.3 49.7
591.9 55.1 49.7
591.9 51.9 49.7
594.8 49.0 49.6
589.8 45.5 49.7
594.8 42.6 49.6
598.8 39.6 49.6
596.7 30.0 49.6
598.7 26.8 49.6
594.7 23.6 49.6
600.7 20.4 49.6
596.7 17.3 49.6
606.6 13.9 49.5
604.6 10.7 49.5
606.6 7.4 49.5
608.6 4.1 49.5
608.5 -2.5 49.5
608.5 -5.8 49.5
606.5 -8.9 49.5
608.5 -12.3 49.5
606.5 -15.4 49.5
614.4 -19.4 49.5
616.4 -22.9 49.4
618.4 -26.5 49.4
616.4 -29.6 49.4
612.4 -32.4 49.5
618.3 -36.5 49.4
616.3 -39.6 49.4
1483.8 -637.2 44.6
1483.8 -647.1 44.6
1483.7 -666.9 44.6
1467.7 -668.3 44.7
1467.6 -678.1 44.7
961.9 -445.9 47.3
957.9 -449.5 47.3
949.9 -450.5 47.3
941.9 -451.5 47.4
933.9 -452.3 47.4
925.9 -453.0 47.5
929.9 -461.2 47.4
918.9 -459.9 47.5
906.8 -463.2 47.5
902.8 -466.1 47.5
886.8 -471.5 47.6
886.8 -476.9 47.6
871.8 -477.0 47.7
859.7 -484.0 47.7
847.7 -480.3 47.8
836.7 -482.1 47.8
836.7 -487.1 47.8
828.7 -486.0 47.9
828.7 -490.9 47.9
816.7 -486.4 47.9
812.7 -488.1 47.9
808.7 -489.7 48.0
804.7 -491.2 48.0
800.6 -497.5 48.0
789.7 -493.0 48.0
777.6 -501.3 48.1
773.6 -502.4 48.1
765.6 -504.4 48.1
761.6 -505.3 48.2
726.5 -524.2 48.3
718.5 -520.4 48.3
714.5 -524.6 48.3
703.5 -525.5 48.4
707.4 -533.7 48.4
699.4 -529.4 48.4
691.4 -528.9 48.4
687.4 -532.4 48.5
675.4 -534.7 48.5
672.4 -538.9 48.5
662.4 -542.5 48.6
658.3 -548.9 48.6
642.3 -544.3 48.7
640.3 -549.0 48.7
505.9 397.5 48.0
510.8 395.7 48.0
512.8 390.3 47.9
507.8 382.3 48.0
514.8 384.9 47.9
516.7 376.8 47.9
518.7 373.7 47.8
524.3 296.0 47.7
532.3 299.6 47.6
530.2 292.7 47.6
530.2 290.1 47.6
532.2 288.9 47.6
530.2 279.4 47.6
536.2 281.1 47.5
534.1 276.9 47.5
532.1 270.1 47.5
536.1 270.2 47.5
542.1 271.6 47.4
534.1 263.5 47.5
542.1 266.1 47.4
544.1 261.9 47.4
540.0 256.5 47.4
542.0 252.3 47.4
544.0 250.8 47.4
548.0 244.9 47.3
545.9 240.9 47.3
543.9 234.2 47.3
541.9 230.3 47.4
549.9 232.0 47.3
545.8 227.0 47.3
549.8 223.5 47.3
554.8 223.4 47.2
551.7 207.6 47.2
551.7 204.8 47.2
551.7 202.0 47.2
552.7 199.6 47.2
554.6 192.0 47.2
554.6 189.1 47.2
558.6 188.0 47.1
554.6 183.4 47.1
558.6 182.2 47.1
562.6 181.0 47.0
560.5 174.4 47.1
562.5 169.3 47.0
562.5 166.4 47.0
558.5 162.0 47.1
566.5 162.0 47.0
562.4 157.7 47.0
572.4 158.2 46.9
568.4 153.8 46.9
564.4 149.6 47.0
566.4 147.3 47.0
570.3 139.6 46.9
568.3 136.1 46.9
574.3 134.8 46.8
574.3 131.8 46.8
570.2 124.8 46.9
574.2 122.8 46.8
580.2 121.3 46.8
576.2 117.2 46.8
582.2 115.6 46.7
584.2 113.0 46.7
580.2 109.0 46.7
578.1 105.6 46.8
584.1 100.7 46.7
582.1 97.2 46.7
580.1 93.8 46.7
584.0 91.4 46.7
584.0 88.3 46.7
584.0 85.2 46.7
586.0 82.5 46.6
588.0 79.6 46.6
588.0 76.5 46.6
587.9 73.4 46.6
589.9 67.4 46.6
591.9 61.3 46.5
591.8 55.1 46.5
596.8 52.3 46.5
598.8 49.2 46.4
594.8 45.8 46.5
598.8 42.8 46.4
589.7 39.3 46.5
602.7 36.6 46.4
602.7 33.3 46.4
598.7 30.0 46.4
602.7 26.9 46.4
600.6 23.7 46.4
600.6 20.5 46.4
598.6 17.3 46.4
606.6 13.9 46.3
606.6 10.7 46.3
604.6 7.5 46.3
606.5 4.1 46.3
602.5 1.1 46.3
604.5 -2.3 46.3
608.4 -12.3 46.2
608.4 -15.6 46.2
612.4 -19.2 46.2
620.3 -26.7 46.1
616.3 -29.6 46.1
612.3 -32.4 46.2
622.3 -37.0 46.0
1475.7 -643.0 34.8
1483.5 -666.9 34.7
1467.5 -668.3 34.9
1467.5 -678.1 34.9
961.9 -445.9 41.3
949.9 -444.6 41.5
949.8 -450.5 41.5
941.8 -451.5 41.6
933.8 -452.3 41.7
933.8 -458.0 41.7
929.8 -461.2 41.7
918.8 -459.8 41.8
906.8 -463.2 42.0
902.7 -466.1 42.0
886.7 -471.5 42.2
886.7 -476.9 42.2
871.7 -477.0 42.4
855.7 -481.1 42.6
855.6 -486.2 42.6
839.6 -484.4 42.8
832.6 -484.1 42.9
832.6 -489.0 42.9
824.6 -492.7 43.0
816.6 -491.3 43.1
800.6 -483.2 43.3
804.6 -491.2 43.2
797.6 -490.3 43.3
797.6 -495.0 43.3
773.6 -497.8 43.6
769.6 -498.9 43.6
765.5 -504.4 43.7
757.5 -510.5 43.7
750.5 -512.9 43.8
734.5 -506.6 44.0
738.4 -518.9 44.0
734.4 -519.3 44.0
718.5 -516.3 44.2
714.5 -516.4 44.3
714.4 -524.6 44.3
703.4 -525.5 44.4
703.4 -529.6 44.4
699.4 -529.4 44.4
640.3 -541.9 45.1
642.3 -551.4 45.1
509.8 402.1 45.5
510.8 395.7 45.4
514.8 392.5 45.4
510.8 385.6 45.4
514.7 384.9 45.4
518.7 378.9 45.3
518.7 373.7 45.3
516.6 361.4 45.3
518.6 355.7 45.2
524.6 356.3 45.1
518.5 348.0 45.2
524.5 345.8 45.1
526.5 339.8 45.1
526.4 334.5 45.1
518.4 322.2 45.2
524.4 322.2 45.1
528.4 320.4 45.0
528.3 315.1 45.0
524.3 306.5 45.1
532.3 305.0 44.9
526.2 297.6 45.0
524.2 293.4 45.0
534.2 295.8 44.8
534.2 293.1 44.8
534.2 290.4 44.8
530.1 279.4 44.9
532.1 278.2 44.9
540.1 281.2 44.7
536.1 275.7 44.8
536.1 270.2 44.8
538.1 268.9 44.7
540.0 267.5 44.7
542.0 266.1 44.7
541.8 233.0 44.6
547.8 228.1 44.5
547.8 222.5 44.5
549.8 220.7 44.4
551.7 216.1 44.4
547.7 205.7 44.5
554.7 206.3 44.3
552.6 199.6 44.4
556.6 192.9 44.3
554.6 189.1 44.3
558.6 188.0 44.2
558.6 185.1 44.2
560.5 183.1 44.2
558.5 179.3 44.2
556.5 175.7 44.2
560.5 174.4 44.2
560.5 168.6 44.2
564.5 167.2 44.1
562.4 163.5 44.1
566.4 162.0 44.0
566.4 159.1 44.0
572.4 158.2 43.9
570.4 154.5 43.9
562.3 146.0 44.1
574.3 140.8 43.8
576.3 138.4 43.8
574.3 134.8 43.8
572.2 131.3 43.9
578.2 126.8 43.7
568.2 121.3 43.9
576.2 120.3 43.8
578.2 117.7 43.7
576.1 114.2 43.8
582.1 112.5 43.6
582.1 103.3 43.6
584.1 100.7 43.6
584.0 97.6 43.6
580.0 93.8 43.7
586.0 91.8 43.5
584.0 88.3 43.6
588.0 85.9 43.5
583.9 82.2 43.6
587.9 79.6 43.5
591.9 77.1 43.4
591.9 73.9 43.4
591.9 70.8 43.4
594.8 64.8 43.3
591.8 55.1 43.4
596.8 52.3 43.3
596.8 49.1 43.3
596.7 42.7 43.3
592.7 39.4 43.3
600.7 36.5 43.2
604.6 30.2 43.1
598.6 26.9 43.2
600.6 23.7 43.2
602.6 20.4 43.1
600.6 17.2 43.2
598.5 14.1 43.2
606.5 10.7 43.0
602.5 7.5 43.1
602.5 4.3 43.1
602.5 1.1 43.1
612.4 -2.7 42.9
610.4 -5.9 42.9
610.4 -12.4 42.9
612.3 -19.2 42.9
626.3 -23.9 42.6
614.3 -29.3 42.8
618.3 -33.2 42.7
620.2 -36.8 42.7
1483.5 -647.1 24.8
1475.4 -662.7 24.9
1460.4 -664.6 25.2
1467.3 -678.1 25.1
964.8 -447.7 35.3
957.8 -449.4 35.5
953.7 -452.9 35.5
937.8 -449.0 35.9
898.7 -463.4 36.6
882.6 -468.8 36.9
882.6 -474.1 36.9
871.6 -477.0 37.1
855.6 -481.1 37.4
843.6 -477.3 37.7
836.6 -482.1 37.8
836.5 -487.1 37.8
820.5 -489.5 38.1
816.5 -491.2 38.2
808.5 -489.7 38.3
804.5 -491.2 38.4
797.5 -495.0 38.6
781.5 -500.2 38.9
781.5 -504.8 38.9
769.5 -498.9 39.1
765.5 -504.4 39.2
757.4 -510.5 39.3
738.4 -510.3 39.7
738.4 -518.9 39.7
734.4 -519.3 39.8
722.4 -520.2 40.0
714.4 -516.4 40.2
718.3 -528.6 40.1
703.3 -525.5 40.4
703.3 -529.5 40.4
703.3 -533.6 40.4
699.3 -533.4 40.4
687.3 -532.4 40.7
675.3 -530.9 40.9
679.3 -539.1 40.8
675.2 -542.3 40.9
660.3 -540.2 41.2
640.3 -541.9 41.6
640.2 -549.0 41.6
514.9 412.9 42.8
510.8 403.2 42.9
512.8 403.0 42.9
510.8 395.7 42.9
510.7 385.6 42.9
516.7 387.0 42.8
514.6 374.7 42.8
520.7 375.8 42.6
522.4 336.1 42.5
524.4 332.7 42.5
524.4 324.9 42.5
528.4 325.7 42.4
528.3 320.4 42.3
528.3 315.1 42.3
524.2 306.5 42.4
528.2 299.2 42.3
534.2 293.1 42.1
538.2 293.4 42.0
540.2 292.2 42.0
534.1 279.6 42.1
534.1 276.9 42.1
538.0 274.3 42.0
534.0 268.9 42.1
542.0 271.6 41.9
544.0 267.4 41.8
544.0 261.9 41.8
539.9 256.5 41.9
541.9 255.1 41.9
545.9 254.8 41.8
541.9 249.6 41.9
543.9 242.5 41.8
545.8 240.9 41.8
545.8 235.3 41.7
539.8 226.4 41.9
549.8 226.4 41.6
549.6 206.6 41.6
552.6 205.3 41.5
560.6 200.5 41.3
554.6 192.0 41.4
560.6 191.8 41.3
558.5 188.0 41.3
558.5 185.1 41.3
560.5 183.1 41.3
560.5 180.2 41.3
558.4 173.6 41.3
556.4 169.9 41.4
564.4 170.1 41.1
566.4 167.9 41.1
564.4 158.4 41.1
572.3 143.2 40.9
570.2 139.6 40.9
576.2 138.4 40.8
572.2 134.3 40.9
570.2 130.7 40.9
574.2 128.8 40.8
574.2 125.8 40.8
574.1 122.8 40.8
574.1 119.8 40.8
576.1 117.3 40.8
578.1 114.7 40.7
576.1 111.2 40.7
576.1 108.2 40.7
584.0 106.8 40.5
586.0 101.1 40.5
580.0 96.8 40.6
584.0 94.5 40.5
582.0 91.1 40.6
587.9 89.0 40.4
589.9 86.2 40.3
587.9 82.8 40.4
589.9 79.9 40.3
591.9 77.1 40.3
587.8 73.4 40.4
591.8 70.8 40.3
589.8 67.4 40.3
587.8 64.1 40.4
594.8 61.6 40.2
594.8 58.5 40.2
594.7 49.0 40.1
596.6 39.6 40.1
594.6 36.3 40.1
598.6 33.3 40.0
598.6 30.1 40.0
600.6 26.9 40.0
602.5 20.5 39.9
598.5 17.3 40.0
602.5 14.0 39.9
606.5 10.7 39.8
604.5 7.5 39.8
602.4 4.3 39.9
604.4 1.0 39.8
610.3 -19.0 39.6
624.3 -23.7 39.2
620.3 -26.7 39.3
618.2 -29.8 39.4
618.2 -33.2 39.4
632.2 -38.4 39.0
1475.3 -662.7 15.1
1467.2 -668.3 15.3
945.6 -453.9 29.8
933.7 -452.3 30.2
929.6 -455.5 30.3
925.6 -458.7 30.4
918.6 -459.8 30.6
906.6 -463.2 30.9
898.6 -463.4 31.1
886.6 -471.5 31.4
879.6 -472.0 31.6
867.6 -468.9 32.0
871.5 -477.0 31.8
855.5 -481.0 32.3
773.4 -497.8 34.5
761.4 -500.8 34.8
757.4 -506.1 34.9
746.4 -500.5 35.2
750.3 -512.9 35.1
734.4 -506.5 35.5
734.4 -510.8 35.5
734.3 -515.0 35.5
730.3 -515.4 35.6
726.3 -524.1 35.7
718.3 -520.4 36.0
714.3 -524.6 36.1
703.3 -521.5 36.4
703.3 -529.5 36.4
699.3 -529.4 36.5
699.2 -533.3 36.5
675.3 -530.9 37.1
670.2 -536.6 37.3
662.2 -542.5 37.5
654.2 -544.2 37.7
646.2 -545.5 37.9
648.1 -551.5 37.8
640.2 -548.9 38.1
510.7 395.7 40.4
514.7 392.5 40.3
507.7 382.3 40.5
512.7 382.7 40.3
512.6 372.6 40.3
518.6 373.7 40.1
518.5 363.4 40.1
518.5 355.7 40.1
518.5 350.5 40.1
522.5 351.8 39.9
526.4 347.7 39.8
520.4 331.7 40.0
528.4 336.3 39.7
524.3 322.2 39.8
528.3 320.4 39.7
530.3 316.8 39.6
532.1 294.3 39.5
530.1 290.1 39.6
530.1 282.1 39.6
538.1 282.5 39.3
536.0 278.4 39.4
536.0 275.7 39.4
540.0 275.7 39.2
540.0 270.3 39.2
538.0 266.2 39.3
537.9 263.4 39.3
537.9 255.3 39.3
539.9 253.8 39.2
543.9 250.8 39.1
541.8 246.8 39.1
543.8 242.5 39.0
543.8 234.2 39.0
541.7 230.3 39.1
547.7 230.9 38.9
545.7 227.0 39.0
543.7 220.3 39.0
549.7 220.7 38.8
551.7 216.1 38.7
552.6 213.8 38.7
552.6 211.0 38.7
552.6 208.1 38.7
552.6 205.3 38.7
554.6 200.6 38.6
552.5 188.2 38.7
556.5 187.1 38.5
558.5 185.1 38.4
558.5 182.2 38.4
560.4 180.2 38.4
560.4 174.4 38.4
560.4 168.6 38.4
568.4 165.7 38.1
562.3 160.6 38.3
566.3 159.1 38.1
568.3 156.8 38.1
566.3 153.2 38.1
566.2 147.3 38.1
572.2 146.2 37.9
566.2 141.4 38.1
576.2 141.4 37.8
574.2 137.8 37.8
572.2 134.3 37.9
570.1 130.7 38.0
574.1 128.8 37.8
574.1 125.8 37.8
570.1 121.8 37.9
576.1 120.3 37.7
572.1 116.3 37.9
578.1 114.7 37.7
574.0 110.8 37.8
580.0 109.1 37.6
584.0 106.8 37.4
580.0 103.0 37.6
580.0 99.9 37.6
579.9 96.8 37.6
581.9 94.2 37.5
579.9 90.7 37.6
585.9 85.6 37.3
591.9 83.4 37.1
591.8 80.2 37.1
591.8 73.9 37.1
592.8 70.9 37.1
589.8 67.4 37.2
587.7 64.1 37.2
592.7 58.3 37.1
594.7 55.3 37.0
594.7 52.1 37.0
596.7 49.1 36.9
592.6 45.7 37.0
600.6 39.7 36.8
600.6 36.5 36.8
600.6 33.3 36.8
602.5 30.1 36.7
604.5 26.9 36.6
604.5 23.7 36.6
600.5 20.5 36.7
598.5 17.3 36.8
600.4 14.0 36.7
604.4 10.7 36.6
608.4 7.3 36.4
606.4 4.2 36.5
608.4 0.8 36.4
606.3 -2.4 36.5
612.3 -6.0 36.3
614.3 -9.4 36.2
610.3 -15.7 36.3
610.2 -19.0 36.3
622.2 -26.9 35.9
616.2 -29.6 36.1
616.2 -32.9 36.1
616.1 -36.2 36.1
624.1 -40.7 35.8
914.4 -474.1 25.1
906.4 -474.2 25.3
871.4 -477.0 26.6
851.4 -478.1 27.3
851.4 -483.2 27.3
839.4 -489.4 27.7
824.4 -482.8 28.2
816.4 -486.4 28.5
812.4 -488.0 28.6
820.3 -499.3 28.3
808.4 -494.5 28.7
797.4 -495.0 29.1
793.4 -496.4 29.3
777.3 -501.3 29.8
769.4 -498.9 30.1
765.3 -504.3 30.2
754.3 -503.4 30.6
750.3 -504.1 30.7
750.3 -512.9 30.7
734.3 -506.5 31.3
742.2 -522.7 31.0
730.3 -515.4 31.4
714.3 -512.3 32.0
718.2 -520.4 31.8
714.2 -524.6 32.0
707.2 -525.6 32.2
703.2 -529.5 32.3
703.2 -533.5 32.3
699.2 -533.3 32.5
687.2 -532.4 32.9
683.1 -539.6 33.0
670.2 -536.6 33.5
660.2 -540.2 33.8
658.1 -548.9 33.9
644.1 -543.1 34.4
644.1 -546.7 34.4
640.1 -548.9 34.5
514.8 415.4 37.8
507.7 399.8 38.0
512.7 397.9 37.8
509.6 384.5 37.9
514.6 384.9 37.7
514.6 374.7 37.7
524.4 353.7 37.3
524.4 345.8 37.2
522.3 333.5 37.3
524.3 332.7 37.2
524.3 330.1 37.2
520.3 321.4 37.4
528.3 325.7 37.1
532.3 323.8 36.9
528.2 315.1 37.0
530.2 311.4 36.9
526.1 302.9 37.1
528.1 301.8 37.0
534.1 301.2 36.8
534.1 295.8 36.8
536.1 294.7 36.7
534.1 290.4 36.8
534.0 285.0 36.7
532.0 280.9 36.8
538.0 282.5 36.6
541.9 266.1 36.4
537.9 255.3 36.5
543.9 256.4 36.3
539.8 251.1 36.4
545.8 252.1 36.2
545.8 246.5 36.2
547.8 244.9 36.1
547.8 242.1 36.1
543.7 234.2 36.3
549.7 232.0 36.0
545.7 227.0 36.2
547.7 222.5 36.1
551.6 216.1 35.9
551.6 213.3 35.9
552.6 211.0 35.8
551.6 207.6 35.9
551.6 204.8 35.9
554.5 200.6 35.7
556.5 198.6 35.7
554.5 194.8 35.7
556.5 192.9 35.7
554.5 189.1 35.7
558.4 185.1 35.6
562.4 183.9 35.4
560.4 174.4 35.5
556.3 169.9 35.6
562.3 169.3 35.4
562.3 166.4 35.4
562.3 163.5 35.4
562.3 157.7 35.4
568.3 156.8 35.1
566.2 153.2 35.2
572.2 149.2 34.9
576.2 147.5 34.7
568.2 142.0 35.1
572.2 140.2 34.9
574.1 137.8 34.8
576.1 135.4 34.7
572.1 128.3 34.9
578.1 123.8 34.6
578.0 120.8 34.6
576.0 117.3 34.7
578.0 114.7 34.6
582.0 112.6 34.5
580.0 109.1 34.5
586.0 107.3 34.3
585.9 101.1 34.3
583.9 94.5 34.3
579.9 90.7 34.5
587.8 89.0 34.2
587.8 85.9 34.2
591.8 83.4 34.0
587.8 79.7 34.2
587.8 76.5 34.2
589.8 73.7 34.1
587.7 70.3 34.1
591.7 67.6 34.0
594.7 61.6 33.8
592.7 58.3 33.9
592.6 55.2 33.9
596.6 52.3 33.7
598.6 49.2 33.6
594.6 45.8 33.8
596.6 39.6 33.7
600.5 33.3 33.5
594.5 30.0 33.8
602.5 26.9 33.5
602.5 23.7 33.4
602.4 20.5 33.4
598.4 17.3 33.6
610.4 13.9 33.1
600.4 10.8 33.5
604.4 7.5 33.3
604.3 4.2 33.3
612.3 -2.7 33.0
606.3 -5.6 33.2
610.2 -15.7 33.1
624.2 -23.7 32.5
618.2 -26.5 32.7
622.1 -30.3 32.5
624.1 -33.9 32.4
628.1 -37.8 32.3
914.3 -485.3 19.4
707.2 -525.6 28.2
703.1 -529.5 28.3
703.1 -533.5 28.3
691.2 -528.8 28.8
691.1 -532.7 28.8
679.1 -535.2 29.3
670.1 -536.6 29.7
656.1 -535.6 30.3
656.1 -546.5 30.3
646.1 -549.1 30.7
648.0 -558.7 30.6
514.6 392.5 35.2
512.6 382.7 35.3
514.5 374.7 35.2
522.5 377.9 34.8
522.5 370.0 34.8
522.4 359.6 34.7
518.4 350.5 34.9
522.3 344.0 34.7
522.3 333.5 34.7
528.3 336.3 34.4
526.1 308.2 34.5
526.1 300.2 34.5
530.1 298.1 34.3
530.0 292.8 34.3
530.0 290.1 34.3
536.0 291.9 34.0
536.0 289.2 34.0
536.0 283.8 33.9
536.0 278.4 33.9
533.9 274.3 34.0
539.9 275.8 33.7
543.9 273.0 33.5
537.9 266.2 33.8
541.9 266.1 33.6
539.8 256.6 33.7
543.8 256.4 33.5
543.8 253.6 33.5
543.7 242.5 33.5
551.7 233.1 33.1
549.7 229.2 33.2
549.6 217.9 33.2
549.6 215.1 33.2
551.6 213.3 33.1
552.5 211.0 33.0
552.5 208.1 33.0
554.5 206.3 32.9
552.5 199.6 33.0
556.5 198.6 32.8
556.5 195.8 32.8
556.4 192.9 32.8
558.4 190.9 32.7
558.4 188.0 32.7
558.4 185.1 32.7
564.4 184.8 32.4
560.4 180.2 32.6
558.3 176.5 32.7
560.3 174.4 32.6
564.3 173.0 32.4
564.3 164.2 32.3
570.3 163.5 32.0
566.2 159.1 32.2
570.2 154.5 32.0
572.2 152.2 31.9
574.2 149.9 31.8
570.1 145.6 32.0
574.1 143.9 31.8
572.1 140.3 31.9
572.1 137.3 31.9
572.1 134.3 31.9
574.1 131.8 31.8
574.0 128.8 31.8
574.0 125.8 31.8
578.0 120.8 31.6
574.0 116.8 31.8
580.0 115.2 31.5
585.9 113.5 31.2
575.9 108.2 31.7
585.9 107.3 31.2
581.9 100.3 31.4
583.9 97.6 31.3
585.8 94.9 31.2
583.8 91.4 31.3
589.8 89.3 31.0
587.8 85.9 31.1
587.8 82.8 31.0
587.7 79.7 31.0
585.7 76.3 31.1
587.7 73.4 31.0
587.7 70.3 31.0
589.7 67.4 30.9
596.7 65.0 30.6
596.6 61.8 30.6
592.6 58.3 30.8
592.6 55.2 30.8
604.6 49.6 30.2
598.5 46.0 30.5
598.5 42.9 30.4
596.5 33.2 30.5
596.4 30.0 30.5
598.4 26.9 30.4
602.4 23.7 30.2
600.4 20.5 30.3
600.4 17.3 30.3
604.4 14.0 30.1
606.3 10.7 30.0
610.3 7.3 29.8
602.3 4.3 30.2
608.3 0.8 29.9
606.3 -2.3 30.0
610.2 -5.9 29.8
606.2 -8.9 30.0
614.2 -12.7 29.6
610.2 -15.7 29.8
612.1 -19.2 29.7
610.1 -22.3 29.8
620.1 -26.7 29.3
616.1 -29.6 29.5
620.1 -33.4 29.3
626.0 -37.5 28.9
510.7 403.2 32.9
512.7 403.0 32.8
509.6 394.6 32.9
516.6 387.0 32.5
518.5 378.9 32.4
518.5 376.3 32.4
520.4 352.5 32.2
520.3 349.9 32.2
524.3 345.8 32.0
528.3 344.3 31.8
526.3 337.2 31.9
528.3 336.3 31.8
524.2 330.1 32.0
524.2 324.9 32.0
528.1 315.1 31.7
524.1 306.5 32.0
530.1 308.8 31.6
528.1 301.8 31.7
536.0 294.7 31.3
534.0 290.4 31.4
534.0 287.7 31.4
538.0 285.3 31.1
531.9 275.5 31.5
535.9 275.7 31.2
537.9 274.4 31.1
539.9 270.3 31.0
537.8 266.2 31.1
537.8 263.5 31.1
543.8 259.1 30.7
541.8 252.3 30.9
543.7 250.8 30.7
543.7 245.3 30.7
549.6 226.4 30.4
552.6 222.3 30.2
551.6 219.0 30.2
549.5 215.1 30.3
554.5 214.8 30.1
554.5 212.0 30.1
554.5 209.1 30.1
556.5 207.3 29.9
556.5 204.4 29.9
556.4 195.8 29.9
558.4 193.8 29.8
556.4 190.0 29.9
552.4 185.4 30.1
558.3 185.1 29.8
560.3 183.1 29.7
560.3 180.2 29.7
560.3 177.3 29.7
564.3 170.1 29.4
562.2 166.4 29.5
564.2 164.3 29.4
568.2 153.9 29.2
570.1 151.6 29.1
572.1 149.2 28.9
570.1 145.6 29.0
574.1 143.9 28.8
578.1 142.0 28.6
576.1 138.4 28.7
572.0 134.3 28.9
578.0 126.9 28.6
578.0 123.8 28.6
579.9 118.2 28.4
577.9 114.7 28.6
583.9 113.0 28.2
579.9 109.1 28.4
583.9 106.8 28.2
585.8 104.2 28.1
581.8 100.3 28.3
583.8 97.6 28.2
585.8 94.9 28.1
583.8 91.4 28.2
581.8 88.0 28.3
589.7 86.2 27.8
587.7 82.8 27.9
587.7 79.7 27.9
592.7 77.2 27.6
591.7 73.9 27.7
592.6 70.9 27.6
594.6 64.8 27.5
592.6 61.5 27.6
594.6 58.5 27.5
594.6 55.3 27.5
594.5 52.2 27.5
598.5 49.2 27.3
591.5 45.7 27.7
596.5 42.8 27.4
596.5 39.6 27.4
600.4 36.5 27.1
600.4 33.3 27.1
602.4 30.1 27.0
604.4 26.9 26.9
604.3 20.5 26.9
602.3 17.2 27.0
604.3 14.0 26.9
600.3 10.8 27.1
608.3 7.4 26.6
608.2 0.8 26.6
614.2 -2.8 26.3
610.2 -5.9 26.5
612.2 -9.3 26.4
610.1 -12.4 26.5
612.1 -19.2 26.4
628.1 -24.1 25.4
614.0 -29.3 26.2
622.0 -33.6 25.8
624.0 -37.3 25.7
514.5 384.9 30.1
518.5 376.3 29.8
518.4 366.0 29.8
514.4 356.9 30.0
520.4 357.7 29.7
520.3 352.5 29.7
524.3 353.7 29.4
528.2 325.7 29.1
532.1 318.4 28.8
528.1 309.8 29.1
526.0 305.5 29.2
528.0 301.8 29.1
528.0 296.5 29.1
528.0 293.9 29.1
536.0 292.0 28.5
533.9 287.8 28.7
535.9 283.8 28.5
545.8 271.6 27.9
541.8 260.6 28.1
543.8 259.1 28.0
545.7 257.7 27.8
545.7 252.1 27.8
543.7 245.3 28.0
545.6 240.9 27.8
545.6 238.1 27.8
547.6 236.5 27.7
549.6 234.8 27.6
545.6 229.8 27.8
547.6 228.1 27.7
549.6 226.4 27.5
551.5 221.8 27.4
549.5 217.9 27.5
547.5 211.3 27.7
552.5 211.0 27.3
554.4 209.1 27.2
554.4 203.4 27.2
554.4 200.6 27.2
560.4 197.6 26.8
558.4 193.8 26.9
552.3 188.3 27.3
556.3 187.2 27.0
556.3 184.3 27.0
560.3 183.1 26.8
560.3 177.3 26.8
560.2 174.4 26.8
562.2 169.4 26.6
564.2 164.3 26.5
570.1 160.5 26.1
570.1 157.5 26.1
572.1 155.2 26.0
572.1 152.2 26.0
576.1 150.5 25.7
568.0 142.0 26.2
576.0 141.5 25.7
572.0 137.3 25.9
576.0 135.4 25.7
576.0 132.4 25.7
574.0 128.8 25.8
579.9 124.3 25.4
577.9 120.8 25.5
581.9 118.7 25.3
581.9 115.6 25.3
581.8 109.5 25.2
575.8 105.2 25.6
585.8 104.2 25.0
583.8 97.6 25.1
585.7 94.9 25.0
589.7 92.5 24.7
589.7 86.2 24.7
587.7 82.8 24.8
587.7 79.7 24.8
589.6 76.8 24.7
591.6 73.9 24.6
589.6 70.6 24.7
589.6 67.4 24.7
592.6 64.6 24.5
592.5 61.5 24.5
594.5 58.5 24.3
596.5 52.3 24.2
598.5 49.3 24.1
596.4 45.9 24.2
596.4 42.8 24.2
600.4 39.7 23.9
600.4 36.5 23.9
600.4 33.3 23.9
598.4 30.1 24.0
602.3 26.9 23.8
600.3 20.5 23.9
604.3 17.2 23.6
598.3 14.1 24.0
608.2 10.6 23.4
610.2 4.0 23.2
606.2 0.9 23.5
610.2 -2.6 23.2
612.1 -6.0 23.1
610.1 -9.1 23.2
612.1 -12.6 23.1
616.1 -16.2 22.8
622.0 -23.5 22.4
618.0 -26.4 22.7
618.0 -29.8 22.7
621.9 -37.0 22.4
507.6 399.8 28.1
507.5 392.3 28.1
514.5 384.9 27.5
512.4 372.6 27.7
518.4 376.3 27.2
522.4 377.9 26.9
520.3 352.5 27.1
524.3 353.7 26.8
516.2 343.5 27.3
522.2 344.0 26.9
524.2 343.2 26.8
524.2 340.6 26.8
528.2 341.6 26.5
518.2 329.9 27.2
524.2 332.7 26.7
530.2 335.4 26.3
524.1 324.9 26.7
528.1 325.7 26.4
530.0 306.1 26.3
530.0 303.4 26.3
530.0 298.1 26.3
523.9 290.8 26.7
529.9 292.8 26.3
529.9 290.1 26.3
537.9 290.7 25.7
533.9 282.4 26.0
535.8 281.1 25.8
533.8 277.0 26.0
539.8 278.5 25.5
535.8 273.0 25.8
539.8 273.0 25.5
539.8 270.3 25.5
541.8 268.9 25.4
541.7 257.9 25.3
541.7 255.1 25.3
539.7 251.1 25.5
545.7 252.1 25.0
543.6 248.1 25.2
545.6 246.5 25.0
545.6 240.9 25.0
547.6 239.3 24.9
547.6 233.7 24.9
545.5 227.0 25.0
549.5 226.4 24.7
551.5 224.7 24.6
551.5 221.8 24.6
552.5 216.7 24.5
552.4 208.2 24.5
554.4 200.6 24.3
554.3 197.7 24.3
560.3 197.6 23.9
560.3 186.0 23.9
564.2 181.8 23.6
564.2 176.0 23.6
566.2 170.9 23.4
564.1 164.3 23.6
568.1 162.8 23.3
568.1 159.8 23.3
568.1 156.8 23.3
572.1 155.2 23.0
572.0 149.2 23.0
568.0 142.0 23.2
568.0 136.1 23.2
573.9 134.8 22.8
573.9 131.8 22.8
575.9 126.3 22.6
579.9 124.3 22.3
577.9 120.8 22.5
577.8 117.8 22.5
583.8 116.1 22.0
579.8 106.0 22.3
583.8 103.8 22.0
579.7 93.8 22.3
585.7 91.8 21.9
587.7 89.0 21.7
583.6 85.3 22.0
592.6 83.5 21.4
589.6 80.0 21.6
591.6 77.1 21.4
594.6 74.3 21.2
591.5 67.7 21.4
591.5 64.5 21.4
596.5 61.8 21.0
596.5 58.7 21.0
596.4 52.3 21.0
598.4 49.3 20.9
600.4 46.2 20.7
596.4 39.6 21.0
602.3 36.6 20.6
602.3 33.4 20.6
600.3 30.1 20.7
600.3 26.9 20.7
602.3 23.7 20.5
600.2 20.5 20.7
606.2 17.2 20.3
604.2 14.0 20.4
604.2 10.7 20.4
610.2 7.3 19.9
604.1 4.3 20.4
608.1 0.8 20.1
608.1 -2.4 20.1
610.1 -5.8 19.9
610.1 -9.1 19.9
608.0 -12.3 20.1
612.0 -19.2 19.8
626.0 -23.9 18.7
620.0 -26.7 19.2
617.9 -29.8 19.3
625.9 -37.5 18.7
514.6 415.4 25.0
509.6 402.1 25.4
514.4 372.2 25.0
516.3 361.4 24.8
520.3 357.7 24.5
524.3 356.3 24.2
524.2 353.7 24.2
524.1 335.4 24.1
526.1 334.5 24.0
528.1 333.7 23.8
526.1 324.0 24.0
530.0 308.8 23.6
525.9 302.9 23.9
525.9 300.3 23.9
533.9 293.2 23.3
535.8 281.1 23.1
537.8 279.8 22.9
535.7 270.3 23.1
539.7 270.3 22.8
541.7 266.1 22.6
545.7 266.0 22.3
545.7 263.2 22.3
541.7 257.9 22.6
541.6 252.3 22.6
545.5 238.1 22.2
543.5 231.4 22.4
551.5 233.2 21.8
551.5 227.5 21.7
551.4 219.0 21.7
552.4 216.7 21.7
554.4 214.9 21.5
554.4 212.0 21.5
554.4 209.1 21.5
552.3 205.3 21.6
554.3 203.4 21.5
556.2 190.0 21.3
558.2 188.0 21.1
554.2 177.7 21.4
562.2 175.2 20.8
564.1 173.1 20.6
570.1 172.4 20.2
566.1 167.9 20.5
570.1 166.5 20.1
566.1 162.0 20.5
570.0 157.5 20.1
572.0 152.2 20.0
570.0 148.6 20.1
572.0 146.3 20.0
575.9 135.4 19.6
577.9 132.9 19.5
577.8 120.8 19.5
581.8 115.6 19.1
579.8 112.1 19.3
583.7 109.9 19.0
583.7 106.9 19.0
579.7 103.0 19.3
583.7 100.7 18.9
581.7 94.2 19.1
587.6 92.1 18.6
589.6 89.3 18.4
589.6 86.2 18.4
592.6 83.5 18.2
589.6 80.0 18.4
591.5 77.1 18.3
591.5 74.0 18.3
591.5 70.8 18.3
592.5 67.8 18.2
594.5 64.8 18.0
596.4 55.5 17.8
600.4 49.4 17.5
592.4 45.7 18.2
596.3 42.8 17.8
598.3 39.7 17.7
592.3 36.3 18.1
602.3 33.4 17.3
600.3 30.1 17.5
604.2 20.5 17.2
604.2 17.2 17.2
606.2 14.0 17.0
604.1 10.8 17.1
604.1 7.5 17.1
604.1 4.3 17.1
606.1 0.9 17.0
604.1 -2.2 17.1
614.0 -6.1 16.3
614.0 -12.7 16.3
612.0 -15.9 16.5
612.0 -19.2 16.5
623.9 -23.7 15.5
621.9 -26.9 15.7
613.9 -29.3 16.3
617.9 -33.1 16.0
623.8 -37.3 15.5
613.8 -39.3 16.3
507.5 399.8 23.1
509.5 399.6 22.9
512.5 395.4 22.6
509.4 384.5 22.9
510.4 383.1 22.8
516.3 374.2 22.3
522.3 364.8 21.7
524.3 364.2 21.5
522.2 357.0 21.7
524.2 353.7 21.5
520.1 339.5 21.9
526.1 342.5 21.3
526.1 334.5 21.3
528.1 333.7 21.2
528.0 317.8 21.1
523.9 303.9 21.5
531.9 305.0 20.8
531.9 297.0 20.8
535.8 294.7 20.4
535.8 278.4 20.4
539.7 273.0 20.0
539.7 270.3 20.0
543.7 270.2 19.7
539.7 262.1 20.0
543.6 259.2 19.7
543.6 256.4 19.7
541.6 249.6 19.8
545.6 249.3 19.5
545.6 246.5 19.5
545.5 243.7 19.5
549.5 232.0 19.1
549.4 229.2 19.1
549.4 223.6 19.1
554.4 220.6 18.6
554.4 217.7 18.6
552.4 213.8 18.8
552.3 211.0 18.8
554.3 209.1 18.6
560.3 206.3 18.1
556.3 201.5 18.4
558.3 199.6 18.3
556.2 195.8 18.4
558.2 182.3 18.2
564.1 178.9 17.7
564.1 176.0 17.7
566.1 173.8 17.5
570.1 166.5 17.2
566.0 159.1 17.5
570.0 157.5 17.2
572.0 155.2 17.0
574.0 152.9 16.8
569.9 145.6 17.1
571.9 143.3 17.0
573.9 140.9 16.8
575.9 138.4 16.6
575.9 135.4 16.6
575.8 129.4 16.6
575.8 120.3 16.6
579.8 118.2 16.2
581.7 115.7 16.1
583.7 113.0 15.9
579.7 109.1 16.2
583.7 103.8 15.9
587.6 101.5 15.5
585.6 94.9 15.7
585.6 91.8 15.7
585.6 88.7 15.7
587.6 85.9 15.5
585.5 82.5 15.7
587.5 79.7 15.5
589.5 76.8 15.3
592.5 74.1 15.0
585.5 70.1 15.6
510.5 410.8 20.3
507.5 399.8 20.6
510.5 400.7 20.3
510.4 393.2 20.3
516.3 374.3 19.7
520.3 373.2 19.3
514.2 359.4 19.9
516.2 358.9 19.7
524.2 359.0 18.9
526.1 342.5 18.7
528.1 341.6 18.5
522.1 333.6 19.1
528.0 333.7 18.5
528.0 331.0 18.5
530.0 327.5 18.3
532.0 323.8 18.1
532.0 321.1 18.1
533.8 295.9 17.9
531.8 289.0 18.1
531.7 283.6 18.1
529.7 279.5 18.2
