597.8 -136.1 55.8
593.8 -137.8 55.7
593.8 -141.0 55.7
591.8 -143.3 55.7
590.8 -146.1 55.7
588.8 -151.5 55.7
591.7 -156.0 55.7
586.7 -156.9 55.6
586.7 -160.0 55.6
580.7 -163.5 55.6
586.6 -169.4 55.6
582.6 -170.6 55.6
582.6 -173.7 55.6
570.6 -173.9 55.4
572.6 -180.9 55.5
568.6 -181.8 55.4
572.5 -186.9 55.5
568.5 -193.8 55.4
562.5 -193.4 55.3
560.5 -198.1 55.3
558.4 -202.8 55.3
558.4 -205.7 55.3
556.4 -207.4 55.3
560.4 -212.7 55.3
556.4 -213.2 55.3
562.3 -219.8 55.3
554.4 -217.7 55.2
556.3 -221.8 55.2
550.3 -220.8 55.2
547.3 -224.5 55.1
543.2 -244.2 55.1
535.1 -252.0 55.0
537.1 -256.3 55.0
533.1 -255.9 55.0
533.1 -258.7 55.0
531.1 -259.8 54.9
531.1 -262.5 54.9
531.1 -267.9 54.9
527.0 -272.6 54.9
525.0 -278.9 54.8
521.0 -280.7 54.8
521.0 -283.4 54.8
518.9 -292.0 54.8
512.9 -291.7 54.7
510.9 -297.5 54.7
506.9 -298.7 54.6
512.8 -309.6 54.7
506.7 -318.8 54.6
503.7 -323.2 54.6
505.7 -327.8 54.6
499.7 -326.4 54.5
501.6 -336.0 54.5
495.7 -331.9 54.5
495.6 -334.3 54.5
493.6 -341.8 54.4
493.5 -353.9 54.4
489.5 -351.6 54.4
489.5 -353.9 54.4
487.5 -356.3 54.4
485.5 -361.0 54.3
342.8 215.8 52.3
346.8 214.1 52.3
347.8 208.8 52.3
348.8 208.5 52.3
358.8 212.5 52.3
355.8 206.7 52.3
354.8 201.6 52.3
358.8 202.9 52.3
357.7 196.4 52.3
359.7 195.6 52.3
361.7 194.7 52.3
363.7 195.1 52.3
360.7 191.0 52.3
365.7 189.8 52.3
363.7 185.2 52.3
370.7 185.5 52.3
375.7 186.7 52.3
379.6 183.9 52.3
386.7 187.9 52.4
388.7 187.8 52.4
388.7 184.6 52.4
394.7 187.6 52.4
395.6 176.8 52.4
398.6 177.2 52.4
395.6 173.5 52.4
401.6 174.2 52.4
405.6 173.5 52.4
409.6 174.3 52.4
411.6 173.9 52.4
408.6 170.2 52.4
404.5 165.9 52.4
408.5 164.9 52.4
414.6 166.8 52.4
419.6 166.2 52.4
420.5 164.9 52.4
419.5 162.5 52.4
423.5 163.0 52.4
429.5 162.6 52.5
426.5 159.0 52.5
431.5 159.8 52.5
427.5 155.8 52.5
437.5 157.1 52.5
435.5 152.2 52.5
437.5 151.2 52.5
445.5 153.1 52.5
449.5 153.0 52.5
451.5 151.9 52.5
451.5 149.8 52.5
457.4 146.3 52.5
455.4 141.2 52.5
465.4 143.2 52.5
468.4 135.7 52.5
468.4 133.5 52.5
486.4 135.6 52.6
480.4 131.2 52.6
482.3 129.6 52.6
488.3 129.3 52.6
488.3 127.0 52.6
492.3 123.5 52.6
502.3 124.3 52.6
502.3 121.8 52.6
508.3 121.1 52.6
506.3 118.0 52.6
513.3 115.0 52.6
521.2 112.0 52.7
535.2 102.1 52.7
552.2 100.2 52.7
578.1 84.3 52.8
584.1 82.2 52.8
592.0 73.9 52.8
609.0 69.5 52.9
611.0 66.4 52.9
611.0 63.1 52.9
619.0 60.5 52.9
633.0 58.3 52.9
632.9 51.4 52.9
639.9 48.3 52.9
645.9 45.1 52.9
651.9 41.8 53.0
655.8 38.4 53.0
655.8 34.7 53.0
661.8 31.2 53.0
661.8 27.5 53.0
663.8 23.9 53.0
663.7 20.2 53.0
669.7 16.4 53.0
665.7 12.8 53.0
661.7 9.2 53.0
663.6 5.5 53.0
663.6 1.8 52.9
663.6 -1.9 52.9
657.6 -5.3 52.9
663.6 -9.3 52.9
661.5 -12.8 52.9
655.5 -16.0 52.9
649.5 -19.1 52.9
653.5 -23.1 52.9
649.5 -26.3 52.9
649.4 -29.9 52.9
649.4 -33.5 52.9
645.4 -36.5 52.8
645.4 -40.1 52.8
645.4 -43.6 52.8
643.3 -46.9 52.8
639.3 -49.8 52.8
637.3 -53.0 52.8
633.3 -55.8 52.8
635.3 -59.6 52.8
632.2 -62.5 52.8
633.2 -66.2 52.8
630.2 -69.0 52.8
628.2 -72.1 52.8
626.2 -75.1 52.7
620.2 -77.1 52.7
626.1 -81.9 52.7
628.1 -85.8 52.7
620.1 -87.2 52.7
614.1 -89.1 52.7
618.1 -93.4 52.7
618.0 -96.8 52.7
612.0 -98.5 52.7
610.0 -101.2 52.7
614.0 -105.6 52.7
608.0 -110.4 52.6
607.9 -113.7 52.6
597.9 -113.8 52.6
607.9 -123.5 52.6
605.9 -126.1 52.6
601.8 -128.0 52.6
601.8 -131.2 52.6
597.8 -132.9 52.6
599.8 -136.9 52.6
595.8 -141.8 52.6
597.7 -145.7 52.6
590.7 -146.1 52.6
588.7 -148.4 52.5
590.7 -152.4 52.5
590.7 -155.5 52.5
586.7 -156.9 52.5
588.7 -160.9 52.5
582.6 -161.4 52.5
590.6 -168.1 52.5
580.6 -166.6 52.5
578.6 -168.7 52.5
576.6 -170.8 52.5
576.6 -173.8 52.5
576.6 -176.9 52.5
568.5 -178.9 52.4
568.5 -181.8 52.4
568.5 -187.8 52.4
564.5 -188.6 52.4
570.4 -194.8 52.4
568.4 -196.7 52.4
562.4 -196.3 52.4
558.4 -197.0 52.4
558.4 -199.9 52.4
560.4 -204.0 52.4
562.4 -211.0 52.4
556.3 -213.2 52.4
560.3 -218.5 52.4
560.3 -221.4 52.4
554.3 -220.5 52.4
550.3 -220.8 52.3
552.3 -225.0 52.3
552.3 -227.8 52.3
552.2 -230.7 52.3
550.2 -235.0 52.3
545.2 -234.4 52.3
547.2 -241.4 52.3
543.2 -244.2 52.3
535.1 -249.3 52.3
539.1 -255.1 52.3
541.1 -259.4 52.3
533.1 -255.9 52.2
537.0 -261.8 52.2
529.1 -258.2 52.2
529.1 -260.9 52.2
527.0 -264.6 52.2
523.0 -266.7 52.2
529.0 -274.3 52.2
525.0 -273.6 52.2
527.0 -278.0 52.2
524.9 -278.9 52.2
520.9 -278.1 52.2
518.9 -281.6 52.2
518.9 -289.4 52.2
522.8 -295.7 52.2
512.8 -296.8 52.1
516.8 -303.2 52.1
506.8 -298.7 52.1
508.8 -303.2 52.1
508.8 -305.7 52.1
514.7 -314.1 52.1
510.7 -315.3 52.1
505.7 -312.8 52.1
506.7 -318.8 52.1
503.7 -318.2 52.1
501.7 -323.6 52.1
501.6 -328.6 52.1
489.5 -346.8 52.0
489.5 -353.9 52.0
491.5 -361.1 52.0
487.5 -358.7 52.0
489.4 -365.9 52.0
345.7 198.9 51.0
437.5 159.1 50.5
449.5 155.1 50.5
451.4 149.8 50.4
457.4 146.3 50.4
457.4 144.1 50.4
467.4 144.1 50.4
472.4 141.7 50.3
468.4 137.9 50.3
470.4 136.5 50.3
470.3 134.2 50.3
484.3 134.9 50.3
482.3 129.6 50.3
492.3 130.7 50.2
494.3 129.0 50.2
496.3 127.2 50.2
504.3 124.9 50.2
506.3 123.0 50.1
508.3 121.1 50.1
513.3 120.1 50.1
515.2 118.1 50.1
509.2 113.9 50.1
515.2 113.0 50.1
523.2 112.5 50.1
529.2 111.4 50.0
529.2 106.1 50.0
537.2 105.2 50.0
543.2 103.9 50.0
543.1 101.1 49.9
551.1 100.0 49.9
549.1 96.7 49.9
560.1 93.1 49.9
574.1 86.7 49.8
574.0 83.7 49.8
586.0 82.5 49.7
588.0 79.6 49.7
592.0 77.1 49.7
597.0 74.5 49.7
603.0 68.8 49.6
610.9 66.4 49.6
616.9 60.4 49.6
620.9 57.4 49.5
628.9 54.6 49.5
630.9 51.3 49.5
637.8 48.2 49.4
643.8 45.0 49.4
643.8 41.5 49.4
651.8 38.2 49.4
651.8 34.6 49.4
659.7 27.5 49.3
659.7 23.9 49.3
671.7 20.2 49.2
669.7 16.4 49.3
667.6 12.8 49.3
669.6 9.0 49.2
665.6 5.4 49.3
659.6 1.9 49.3
663.5 -1.9 49.3
661.5 -5.5 49.3
655.5 -8.8 49.3
659.5 -12.7 49.3
655.5 -16.0 49.3
655.4 -19.7 49.3
647.4 -22.5 49.3
653.4 -26.7 49.3
643.4 -32.8 49.3
649.3 -37.0 49.3
647.3 -40.4 49.3
645.3 -43.6 49.3
639.3 -46.3 49.3
637.3 -49.5 49.3
639.2 -53.3 49.3
635.2 -56.1 49.3
633.2 -59.3 49.3
628.2 -68.6 49.3
624.1 -71.2 49.3
630.1 -75.9 49.3
624.1 -78.0 49.3
624.1 -81.4 49.3
624.1 -84.8 49.3
624.0 -88.2 49.3
618.0 -90.1 49.4
620.0 -93.9 49.3
618.0 -96.8 49.3
620.0 -100.7 49.3
609.9 -107.8 49.4
603.9 -109.2 49.4
605.9 -113.1 49.4
611.9 -118.3 49.3
607.8 -120.2 49.4
605.8 -122.8 49.4
603.8 -125.4 49.4
607.8 -130.1 49.3
599.8 -130.5 49.4
595.8 -132.2 49.4
591.8 -133.9 49.4
595.7 -138.6 49.4
591.7 -140.2 49.4
595.7 -144.9 49.4
590.7 -146.1 49.4
593.7 -150.5 49.4
591.7 -152.8 49.4
590.6 -158.7 49.4
584.6 -159.1 49.4
586.6 -166.3 49.4
580.6 -166.6 49.4
576.6 -167.8 49.4
574.5 -175.9 49.4
576.5 -179.9 49.4
570.5 -179.9 49.5
570.4 -188.9 49.4
566.4 -189.7 49.5
564.4 -194.5 49.5
560.4 -198.1 49.5
554.4 -200.4 49.5
558.3 -205.7 49.5
560.3 -209.8 49.5
550.3 -209.5 49.5
560.3 -218.5 49.5
556.2 -224.7 49.5
552.2 -225.0 49.5
549.2 -225.8 49.5
552.2 -230.7 49.5
549.2 -231.5 49.5
543.2 -230.2 49.5
547.1 -241.4 49.5
541.1 -245.5 49.5
539.1 -246.8 49.5
535.1 -246.6 49.5
535.1 -249.3 49.5
539.0 -255.1 49.5
537.0 -256.3 49.5
533.0 -255.9 49.5
526.9 -272.6 49.5
524.9 -276.3 49.5
520.9 -283.3 49.6
518.8 -289.4 49.6
520.8 -293.8 49.5
514.8 -293.5 49.6
510.8 -294.9 49.6
510.7 -307.6 49.6
512.7 -312.2 49.6
506.7 -313.8 49.6
506.7 -316.3 49.6
506.7 -318.8 49.6
505.6 -325.3 49.6
505.6 -327.8 49.6
499.6 -326.4 49.6
499.6 -333.8 49.6
497.6 -336.5 49.6
499.5 -348.6 49.6
491.5 -349.1 49.6
485.5 -349.2 49.6
491.4 -361.1 49.6
487.4 -358.7 49.6
489.4 -365.9 49.6
342.8 215.8 49.8
340.8 212.3 49.8
340.7 207.3 49.8
342.8 208.3 49.8
346.8 208.9 49.7
348.8 209.8 49.7
347.7 204.9 49.7
351.7 206.5 49.7
351.7 205.2 49.6
351.7 201.2 49.6
359.7 206.6 49.6
353.7 196.6 49.6
355.7 194.5 49.6
360.7 196.5 49.5
364.7 196.1 49.5
366.7 195.0 49.5
365.6 189.9 49.5
369.7 191.9 49.4
374.7 194.8 49.4
372.7 191.6 49.4
372.6 188.7 49.4
378.6 189.2 49.3
376.6 183.0 49.3
388.6 189.4 49.2
384.6 183.1 49.2
389.6 182.2 49.2
391.6 182.1 49.1
393.6 181.9 49.1
393.6 180.3 49.1
393.6 175.4 49.1
399.6 177.9 49.0
400.5 173.5 49.0
402.5 173.2 49.0
407.5 174.8 48.9
409.5 172.6 48.9
408.5 166.7 48.9
411.5 166.8 48.9
416.5 168.0 48.8
410.5 162.6 48.9
419.5 166.2 48.8
423.5 166.7 48.7
419.5 162.5 48.8
425.5 162.2 48.7
425.5 160.3 48.7
429.5 160.6 48.6
435.5 162.0 48.6
435.5 160.0 48.6
441.4 155.2 48.5
445.4 153.2 48.4
451.4 154.0 48.4
455.4 153.8 48.3
451.4 149.8 48.4
447.4 145.9 48.4
459.4 149.3 48.3
457.4 146.3 48.3
457.4 144.1 48.3
459.4 142.9 48.3
467.4 144.1 48.2
474.3 140.3 48.1
470.3 136.5 48.1
476.3 136.5 48.0
480.3 133.5 48.0
484.3 130.3 47.9
486.3 126.3 47.9
496.3 127.2 47.8
494.2 124.2 47.8
504.2 124.9 47.7
506.2 120.5 47.7
513.2 115.0 47.6
519.2 114.1 47.5
525.2 113.0 47.4
527.2 110.9 47.4
531.1 106.5 47.3
541.1 106.2 47.2
539.1 103.0 47.2
549.1 99.6 47.1
549.1 96.7 47.1
560.1 93.1 47.0
564.0 90.9 46.9
566.0 88.4 46.9
576.0 87.0 46.8
580.0 84.6 46.7
584.0 82.2 46.7
588.0 79.6 46.6
593.0 77.2 46.5
603.0 75.3 46.4
600.9 71.8 46.4
608.9 69.5 46.3
610.9 66.4 46.3
620.9 60.7 46.2
626.8 57.8 46.1
632.8 54.9 46.0
630.8 51.3 46.0
641.8 44.9 45.9
641.8 41.4 45.9
645.7 38.0 45.8
653.7 34.7 45.7
657.7 31.2 45.7
659.7 27.5 45.7
661.6 23.9 45.6
671.6 20.2 45.5
671.6 16.4 45.5
667.6 12.8 45.5
669.6 9.0 45.5
661.5 5.5 45.6
657.5 2.0 45.6
665.5 -2.0 45.5
663.5 -5.6 45.6
653.5 -8.6 45.7
659.4 -12.7 45.6
655.4 -16.0 45.7
653.3 -26.7 45.7
649.3 -29.9 45.7
645.3 -33.0 45.8
649.3 -37.0 45.7
647.3 -40.4 45.7
647.2 -43.9 45.7
635.2 -45.7 45.9
639.2 -49.8 45.8
633.2 -52.3 45.9
635.2 -56.1 45.8
635.1 -63.1 45.8
633.1 -66.2 45.9
632.1 -69.4 45.9
630.1 -72.5 45.9
622.1 -74.2 46.0
624.0 -78.0 46.0
624.0 -81.4 45.9
616.0 -82.9 46.0
626.0 -88.7 45.9
618.0 -90.1 46.0
616.0 -92.9 46.0
615.9 -96.2 46.0
619.9 -100.7 46.0
611.9 -101.7 46.1
611.9 -105.1 46.1
615.9 -109.5 46.0
609.9 -111.0 46.1
603.8 -112.4 46.2
607.8 -117.0 46.1
609.8 -120.9 46.1
609.8 -124.2 46.1
601.8 -124.7 46.2
595.8 -125.8 46.2
595.7 -129.0 46.2
595.7 -132.2 46.2
595.7 -138.6 46.2
595.7 -141.7 46.2
593.7 -144.1 46.2
595.6 -148.1 46.2
591.6 -149.6 46.2
582.6 -155.2 46.4
586.6 -160.0 46.3
588.5 -167.2 46.3
584.5 -168.4 46.3
578.5 -168.7 46.4
582.5 -173.7 46.3
580.5 -175.8 46.4
576.5 -176.9 46.4
578.4 -180.9 46.4
570.4 -179.9 46.5
570.4 -185.9 46.5
574.4 -191.0 46.4
572.4 -192.9 46.4
572.4 -195.9 46.4
568.3 -196.7 46.5
562.3 -199.3 46.5
556.3 -198.7 46.6
562.3 -205.1 46.5
556.3 -207.4 46.6
554.3 -211.9 46.6
558.2 -217.3 46.6
552.2 -219.2 46.6
550.2 -220.8 46.7
552.2 -225.0 46.6
547.2 -224.5 46.7
547.2 -230.1 46.7
545.1 -231.6 46.7
545.1 -234.4 46.7
549.1 -240.0 46.6
545.1 -240.0 46.7
539.1 -244.0 46.8
541.0 -248.3 46.7
545.0 -256.8 46.7
539.0 -257.8 46.7
535.0 -260.2 46.8
535.0 -262.9 46.8
529.0 -260.9 46.9
529.0 -263.6 46.9
526.9 -270.0 46.9
528.9 -274.3 46.8
522.9 -274.6 46.9
522.9 -279.8 46.9
512.7 -309.6 47.0
514.7 -314.1 47.0
508.7 -315.8 47.0
508.6 -318.3 47.0
505.6 -325.3 47.1
503.6 -325.7 47.1
505.5 -332.8 47.1
499.5 -333.8 47.1
499.5 -336.3 47.1
495.5 -334.3 47.2
499.5 -348.6 47.1
491.4 -356.3 47.2
491.4 -361.1 47.2
487.4 -358.7 47.2
489.4 -365.9 47.2
364.6 189.0 48.0
369.6 189.0 48.0
373.6 189.5 47.9
374.6 188.9 47.9
376.6 186.0 47.8
382.6 189.4 47.7
379.6 183.9 47.7
384.6 184.7 47.6
387.6 183.9 47.6
395.6 188.4 47.4
389.6 182.2 47.5
391.6 182.1 47.5
395.6 183.4 47.4
391.5 178.8 47.5
398.5 177.2 47.4
395.5 173.5 47.4
402.5 173.2 47.3
406.5 174.1 47.2
409.5 174.3 47.1
409.5 172.6 47.1
407.5 169.5 47.2
412.5 171.0 47.1
412.5 167.4 47.1
411.5 165.0 47.1
418.5 165.6 47.0
422.5 166.1 46.9
419.4 162.5 46.9
429.4 162.6 46.7
426.4 159.0 46.8
433.4 160.9 46.7
433.4 155.1 46.6
435.4 152.2 46.6
443.4 152.2 46.4
449.4 153.0 46.3
451.4 149.8 46.3
449.4 146.9 46.3
453.3 146.6 46.2
461.4 148.0 46.1
463.3 142.4 46.0
467.3 141.9 46.0
474.3 140.3 45.8
474.3 138.0 45.8
476.3 136.5 45.8
476.3 134.3 45.8
482.3 134.2 45.7
480.3 131.2 45.7
482.2 129.6 45.6
488.2 129.3 45.5
490.2 127.6 45.5
496.2 127.2 45.4
500.2 123.7 45.3
504.2 119.9 45.2
517.2 116.1 44.9
523.1 112.5 44.8
529.1 111.4 44.7
533.1 109.7 44.6
525.1 105.1 44.8
535.1 104.8 44.6
543.1 101.1 44.4
551.1 100.0 44.2
552.0 97.3 44.2
562.0 93.5 44.0
566.0 88.4 43.9
572.0 86.4 43.8
576.0 84.0 43.7
581.9 81.9 43.6
587.9 79.6 43.5
592.9 77.2 43.4
596.9 74.5 43.3
602.9 72.1 43.2
606.9 69.3 43.1
610.9 66.4 43.0
604.8 62.6 43.1
618.8 60.5 42.9
626.8 57.8 42.7
630.8 54.7 42.6
624.8 50.9 42.7
641.7 44.9 42.4
641.7 41.4 42.4
657.7 38.4 42.1
649.7 34.6 42.2
659.6 31.2 42.0
661.6 27.6 42.0
661.6 23.9 42.0
665.6 20.2 41.9
673.5 16.4 41.7
665.5 12.8 41.9
661.5 9.2 41.9
663.5 5.5 41.9
657.5 2.0 42.0
659.4 -1.7 42.0
663.4 -5.6 41.9
657.4 -8.9 42.0
659.4 -12.7 42.0
655.4 -16.0 42.0
649.3 -22.7 42.1
653.3 -26.7 42.1
647.3 -29.6 42.2
647.3 -33.2 42.2
647.2 -36.8 42.2
647.2 -40.3 42.2
645.2 -43.6 42.2
641.2 -46.6 42.3
637.2 -49.5 42.3
639.1 -53.3 42.3
641.1 -57.2 42.3
632.1 -59.1 42.4
632.1 -62.5 42.4
626.0 -71.6 42.5
630.0 -75.9 42.4
624.0 -78.0 42.6
626.0 -81.9 42.5
626.0 -85.3 42.5
619.9 -87.2 42.6
615.9 -89.6 42.7
621.9 -94.4 42.6
615.9 -96.2 42.7
617.9 -100.1 42.6
613.8 -105.6 42.7
605.8 -106.6 42.9
603.8 -109.2 42.9
609.8 -114.3 42.8
607.8 -117.0 42.8
605.8 -119.6 42.9
603.7 -122.2 42.9
607.7 -126.8 42.8
599.7 -127.2 43.0
595.7 -129.0 43.0
597.7 -132.9 43.0
597.7 -136.1 43.0
597.6 -139.3 43.0
591.6 -140.2 43.1
595.6 -148.1 43.0
595.6 -151.3 43.0
590.5 -155.5 43.1
590.5 -158.6 43.1
582.5 -158.3 43.3
584.5 -165.3 43.2
584.5 -168.4 43.2
582.5 -170.6 43.3
582.4 -173.7 43.2
574.4 -172.9 43.4
576.4 -176.9 43.4
570.4 -176.9 43.5
572.4 -180.9 43.4
572.4 -183.9 43.4
570.4 -188.9 43.5
570.3 -191.8 43.5
570.3 -194.8 43.5
570.3 -197.8 43.5
564.3 -197.4 43.6
558.3 -199.9 43.7
560.3 -203.9 43.6
560.2 -209.8 43.6
558.2 -214.4 43.7
558.2 -217.3 43.7
556.2 -221.8 43.7
554.2 -223.4 43.7
554.1 -226.3 43.7
550.1 -226.5 43.8
554.1 -234.9 43.7
550.1 -235.0 43.8
549.0 -242.8 43.8
541.0 -245.5 44.0
543.0 -249.7 43.9
546.9 -258.3 43.8
537.0 -253.5 44.0
538.9 -257.8 44.0
535.0 -257.5 44.1
534.9 -260.2 44.1
524.9 -263.0 44.3
522.9 -266.6 44.3
526.9 -272.6 44.2
524.8 -278.9 44.2
522.8 -279.8 44.3
520.8 -280.7 44.3
518.8 -281.6 44.4
516.8 -285.0 44.4
520.8 -291.2 44.3
516.8 -290.2 44.4
512.8 -291.7 44.5
508.7 -300.6 44.5
514.7 -309.0 44.4
510.7 -307.6 44.5
512.6 -312.2 44.4
512.6 -317.3 44.4
508.6 -315.8 44.5
508.6 -318.3 44.5
508.6 -320.9 44.5
510.5 -328.0 44.5
505.6 -325.3 44.6
503.6 -325.7 44.6
497.5 -329.2 44.7
499.5 -333.8 44.7
501.5 -343.4 44.6
342.8 215.8 47.3
342.7 210.8 47.3
345.7 213.0 47.2
346.7 212.8 47.2
348.7 209.9 47.1
348.7 204.7 47.1
353.7 207.3 47.0
357.7 201.9 46.8
362.7 202.7 46.7
355.6 194.5 46.9
364.6 196.1 46.6
359.6 190.1 46.8
370.6 194.3 46.5
370.6 192.8 46.5
371.6 190.8 46.4
376.6 186.0 46.3
377.6 183.8 46.3
381.6 183.9 46.2
385.6 183.9 46.1
390.6 186.2 45.9
391.6 183.7 45.9
392.5 181.2 45.9
388.5 176.6 46.0
398.5 180.6 45.7
405.4 166.5 45.5
410.4 166.2 45.3
414.4 166.8 45.2
420.5 168.6 45.1
420.4 164.9 45.1
416.4 160.8 45.2
423.4 163.0 45.0
427.4 161.5 44.9
425.4 158.5 44.9
433.4 160.9 44.7
433.4 159.0 44.7
435.4 156.1 44.7
439.4 154.2 44.5
437.4 151.2 44.6
445.3 151.1 44.4
439.3 146.3 44.5
451.3 145.7 44.2
459.3 147.1 44.0
459.3 145.0 44.0
467.3 144.1 43.8
467.3 141.9 43.8
465.3 138.9 43.8
474.3 140.3 43.6
474.3 138.0 43.6
474.2 135.8 43.6
476.2 134.3 43.5
480.2 131.2 43.4
486.2 131.0 43.2
492.2 130.7 43.1
492.2 128.3 43.1
494.2 126.6 43.0
508.2 126.2 42.6
504.2 122.4 42.7
508.2 121.1 42.6
513.1 117.5 42.5
509.1 113.9 42.6
519.1 114.1 42.3
527.1 113.6 42.1
525.1 110.4 42.1
527.1 108.3 42.1
529.1 106.1 42.0
535.0 104.8 41.9
539.0 103.0 41.7
547.0 99.1 41.5
552.0 97.3 41.4
562.0 93.5 41.1
560.0 90.2 41.2
571.9 86.4 40.8
581.9 84.9 40.5
583.9 82.2 40.5
589.9 79.9 40.3
591.9 77.1 40.3
592.9 74.0 40.2
598.8 71.6 40.1
600.8 68.6 40.0
608.8 66.2 39.8
614.8 63.5 39.6
618.8 60.6 39.5
622.7 57.5 39.4
628.7 54.6 39.2
641.7 52.0 38.9
641.7 48.5 38.9
645.6 41.6 38.7
651.6 38.2 38.6
653.6 34.7 38.5
659.6 31.2 38.4
661.6 27.6 38.3
659.5 23.9 38.3
667.5 20.2 38.1
665.5 12.8 38.2
661.5 9.2 38.3
663.4 5.5 38.2
663.4 1.8 38.2
663.4 -1.9 38.2
665.4 -5.7 38.1
657.3 -8.9 38.4
659.3 -12.7 38.3
651.3 -15.7 38.5
653.3 -19.5 38.5
655.3 -23.3 38.4
653.2 -26.7 38.4
647.2 -33.2 38.6
647.2 -36.8 38.6
649.2 -40.6 38.5
632.2 -41.8 39.0
637.1 -46.0 38.9
641.1 -50.1 38.7
637.1 -53.0 38.8
635.1 -56.1 38.9
630.1 -58.7 39.0
630.0 -62.2 39.0
633.0 -66.2 38.9
624.0 -74.6 39.2
616.0 -76.2 39.4
625.9 -81.9 39.1
625.9 -85.3 39.1
621.9 -87.7 39.2
621.9 -91.1 39.2
613.9 -92.4 39.4
617.8 -100.1 39.3
617.8 -103.4 39.3
611.8 -105.0 39.5
607.8 -107.1 39.6
605.8 -109.8 39.6
609.7 -114.3 39.5
609.7 -117.6 39.5
605.7 -119.6 39.6
605.7 -122.8 39.6
603.7 -125.4 39.7
603.7 -128.6 39.7
601.6 -131.2 39.7
597.6 -132.9 39.8
593.6 -134.6 39.9
591.6 -137.0 40.0
593.6 -141.0 39.9
591.6 -143.3 40.0
591.6 -146.5 40.0
591.5 -149.6 40.0
591.5 -155.9 39.9
586.5 -156.9 40.1
586.5 -160.0 40.1
580.5 -160.4 40.2
582.4 -164.4 40.2
582.4 -167.5 40.2
578.4 -168.7 40.3
578.4 -171.7 40.3
566.4 -171.9 40.6
578.3 -184.0 40.3
572.3 -183.9 40.4
568.3 -184.8 40.5
572.3 -189.9 40.4
566.3 -189.7 40.6
572.3 -195.9 40.4
566.3 -195.6 40.6
562.3 -196.3 40.7
558.3 -197.0 40.8
560.2 -203.9 40.7
558.2 -205.7 40.8
558.2 -208.6 40.8
560.2 -212.7 40.7
558.1 -217.3 40.8
554.1 -220.5 40.9
558.1 -226.0 40.8
552.1 -225.0 40.9
550.1 -226.5 41.0
552.1 -230.7 40.9
550.1 -232.2 41.0
549.0 -234.3 41.0
545.0 -240.0 41.1
545.0 -245.6 41.1
539.0 -244.0 41.3
541.0 -248.3 41.2
538.9 -252.3 41.2
538.9 -255.1 41.2
536.9 -256.3 41.3
532.9 -255.9 41.4
530.9 -265.2 41.4
530.9 -267.9 41.4
524.9 -265.6 41.6
530.8 -276.0 41.4
524.8 -276.3 41.6
518.8 -276.4 41.8
524.7 -286.9 41.6
522.7 -293.0 41.6
514.7 -293.5 41.8
510.7 -292.4 42.0
514.7 -298.7 41.8
510.7 -297.4 41.9
512.6 -304.5 41.9
510.6 -310.2 41.9
506.6 -308.8 42.0
506.6 -313.8 42.0
510.5 -320.4 41.9
505.5 -327.8 42.0
503.5 -330.7 42.1
499.5 -331.4 42.2
497.5 -334.1 42.3
499.4 -338.7 42.2
499.4 -341.2 42.2
501.4 -350.9 42.1
491.4 -346.7 42.4
491.4 -349.1 42.4
489.4 -351.5 42.5
491.3 -356.3 42.4
489.3 -358.7 42.4
485.3 -361.0 42.6
340.7 212.3 46.1
343.7 212.0 46.0
344.7 211.8 45.9
350.7 213.4 45.7
340.6 197.4 46.1
350.6 200.2 45.7
369.6 192.0 45.0
369.6 189.0 45.0
372.6 188.7 44.9
376.6 187.5 44.8
375.5 185.2 44.8
386.6 187.9 44.4
383.5 182.4 44.5
397.5 174.9 44.0
403.5 172.1 43.8
410.5 175.0 43.6
411.5 173.9 43.6
412.4 169.2 43.5
419.4 166.2 43.3
420.4 163.1 43.2
420.4 161.3 43.2
439.3 156.2 42.6
445.3 151.1 42.3
449.3 148.9 42.2
453.3 146.6 42.1
457.3 146.3 41.9
463.3 146.8 41.7
461.3 143.7 41.8
465.3 143.3 41.6
465.2 138.9 41.6
463.2 135.9 41.7
470.2 136.5 41.4
472.2 135.0 41.4
476.2 134.3 41.2
486.2 135.7 40.9
486.2 133.3 40.9
492.2 130.7 40.7
496.2 129.7 40.5
492.2 125.9 40.7
500.1 123.7 40.4
498.1 120.6 40.5
502.1 119.4 40.3
511.1 119.5 40.0
508.1 116.1 40.1
515.1 115.6 39.9
519.1 114.1 39.7
525.1 113.0 39.5
527.0 108.3 39.4
523.0 104.7 39.6
535.0 104.8 39.1
547.0 104.8 38.7
543.0 101.1 38.9
547.0 99.2 38.7
543.0 95.5 38.9
551.9 94.5 38.5
555.9 92.4 38.4
559.9 90.2 38.3
567.9 88.7 38.0
571.9 86.4 37.8
575.9 84.0 37.7
587.9 82.8 37.3
587.8 79.7 37.3
585.8 76.3 37.3
594.8 74.3 37.0
600.8 71.8 36.8
602.8 68.8 36.7
608.8 66.2 36.5
618.7 60.6 36.2
622.7 57.5 36.0
628.7 54.6 35.8
630.7 51.3 35.7
639.6 48.4 35.4
641.6 45.0 35.3
645.6 41.6 35.2
645.6 38.0 35.2
649.6 34.6 35.0
657.5 31.2 34.8
659.5 27.6 34.7
661.5 23.9 34.6
667.5 20.2 34.4
671.4 16.4 34.3
669.4 12.7 34.3
667.4 9.1 34.4
667.4 5.3 34.4
661.4 1.9 34.6
661.3 -1.8 34.6
661.3 -9.1 34.6
657.3 -12.5 34.7
651.3 -15.7 34.9
653.2 -19.5 34.8
655.2 -23.3 34.8
651.2 -26.5 34.9
651.2 -30.1 34.9
645.1 -40.1 35.1
645.1 -43.6 35.1
641.1 -46.6 35.2
641.1 -50.1 35.2
639.0 -53.3 35.3
635.0 -56.1 35.4
633.0 -59.2 35.5
632.0 -62.5 35.5
632.0 -66.0 35.5
632.9 -69.6 35.5
629.9 -72.5 35.6
621.9 -77.6 35.8
621.9 -80.9 35.8
619.9 -83.8 35.9
623.8 -88.2 35.8
615.8 -89.5 36.0
615.8 -92.9 36.0
619.8 -97.3 35.9
615.8 -99.5 36.0
615.8 -102.9 36.0
613.7 -105.6 36.1
609.7 -107.7 36.2
611.7 -111.6 36.2
609.7 -114.3 36.2
609.7 -117.6 36.2
605.6 -122.8 36.3
601.6 -127.9 36.5
597.6 -129.7 36.6
595.6 -135.4 36.7
593.6 -137.8 36.7
593.5 -141.0 36.7
593.5 -144.1 36.7
591.5 -149.6 36.8
590.5 -152.4 36.8
588.4 -157.8 36.9
588.4 -160.9 36.9
588.4 -164.0 36.9
584.4 -165.3 37.0
578.4 -168.7 37.2
582.3 -173.7 37.1
576.3 -176.9 37.3
576.3 -182.9 37.3
566.3 -180.8 37.6
572.3 -186.9 37.4
568.3 -187.8 37.6
574.2 -197.0 37.3
568.2 -196.7 37.5
570.2 -200.8 37.5
564.2 -200.4 37.7
562.2 -205.1 37.7
566.1 -210.4 37.6
554.2 -209.0 38.0
552.1 -210.7 38.1
560.1 -218.5 37.8
556.1 -218.9 37.9
556.1 -221.8 37.9
552.1 -222.1 38.1
550.0 -226.5 38.1
550.0 -232.2 38.1
550.0 -235.0 38.1
545.0 -234.4 38.3
537.0 -239.8 38.6
542.9 -246.9 38.4
538.9 -252.3 38.5
538.9 -255.1 38.5
538.9 -257.8 38.5
526.9 -251.3 38.9
534.9 -260.2 38.6
528.8 -263.6 38.8
530.8 -270.6 38.7
532.8 -277.6 38.7
522.8 -271.9 39.0
524.8 -276.2 38.9
522.8 -277.2 39.0
526.7 -283.3 38.9
522.7 -285.1 39.0
518.7 -286.8 39.1
518.7 -289.4 39.1
518.7 -294.6 39.1
514.7 -293.5 39.3
514.7 -296.1 39.3
510.6 -297.4 39.4
516.6 -308.3 39.2
510.6 -310.2 39.4
506.6 -311.3 39.5
508.5 -315.8 39.4
510.5 -322.9 39.4
505.5 -322.8 39.5
505.5 -325.3 39.5
501.5 -323.6 39.7
501.5 -328.6 39.7
499.4 -331.3 39.7
497.4 -334.1 39.8
499.4 -338.7 39.7
497.4 -339.0 39.8
497.4 -343.9 39.8
497.4 -346.3 39.8
491.4 -346.7 40.0
493.3 -351.4 39.9
489.3 -351.5 40.1
493.3 -358.7 39.9
489.3 -358.7 40.1
485.3 -361.0 40.2
344.6 202.9 44.7
348.7 204.7 44.5
350.6 200.2 44.4
354.6 201.6 44.2
355.6 201.3 44.2
359.6 203.9 44.0
359.6 199.7 44.0
361.6 197.5 43.9
366.6 196.5 43.7
364.6 191.8 43.8
369.6 192.0 43.6
369.5 189.0 43.6
375.6 189.7 43.3
374.5 184.4 43.4
382.5 189.4 43.0
393.5 180.3 42.5
390.5 174.9 42.7
396.5 177.5 42.4
402.5 180.0 42.2
411.5 179.2 41.8
407.4 174.8 41.9
409.4 172.6 41.9
408.4 170.2 41.9
411.4 170.3 41.8
417.4 168.7 41.5
420.4 168.6 41.4
419.4 166.2 41.4
420.4 164.9 41.4
423.4 163.0 41.3
429.4 160.7 41.0
431.3 159.8 40.9
433.3 159.0 40.8
431.3 154.0 40.9
439.3 156.2 40.6
441.3 155.2 40.5
443.3 152.2 40.4
451.3 145.7 40.0
457.2 144.1 39.8
457.2 142.0 39.8
459.2 140.7 39.7
459.2 138.6 39.7
470.2 136.5 39.2
474.2 135.8 39.1
478.2 135.0 38.9
480.2 133.5 38.8
484.1 130.3 38.6
486.1 128.6 38.5
486.1 126.3 38.5
492.1 123.5 38.3
498.1 123.0 38.0
496.1 120.0 38.1
504.1 120.0 37.8
513.1 120.1 37.4
508.0 116.1 37.6
513.0 115.0 37.4
515.0 113.0 37.3
527.0 113.6 36.8
531.0 109.2 36.6
533.0 107.0 36.5
539.0 105.7 36.3
544.9 101.5 36.0
548.9 99.6 35.8
555.9 98.2 35.5
555.9 95.3 35.5
561.9 93.5 35.3
565.9 88.4 35.1
575.8 87.0 34.7
577.8 84.3 34.6
579.8 81.6 34.5
585.8 79.4 34.2
587.8 76.5 34.2
591.8 73.9 34.0
600.7 71.8 33.6
598.7 68.4 33.7
610.7 66.4 33.2
612.7 63.3 33.1
620.7 60.7 32.7
624.6 57.7 32.6
628.6 54.6 32.4
622.6 50.8 32.6
633.6 48.0 32.2
645.6 45.2 31.7
647.5 41.7 31.6
645.5 38.1 31.6
653.5 34.7 31.3
659.5 31.2 31.0
661.5 27.6 31.0
657.4 23.9 31.1
673.4 20.2 30.4
663.4 16.5 30.9
667.4 12.8 30.7
665.3 9.1 30.8
667.3 5.3 30.7
665.3 1.7 30.7
663.3 -5.6 30.8
661.2 -9.1 30.9
659.2 -12.7 31.0
649.2 -15.5 31.4
653.2 -19.5 31.2
657.2 -23.4 31.1
653.1 -26.7 31.2
655.1 -30.5 31.1
653.1 -33.9 31.2
651.1 -37.3 31.3
649.1 -40.6 31.4
643.0 -43.3 31.6
645.0 -47.2 31.5
641.0 -50.1 31.7
645.0 -54.3 31.5
633.0 -55.8 32.0
634.9 -59.6 31.9
631.9 -62.5 32.1
631.9 -66.0 32.1
631.9 -69.4 32.1
627.9 -75.5 32.2
619.8 -80.5 32.6
621.8 -84.3 32.5
619.8 -87.2 32.5
621.8 -91.1 32.5
617.8 -93.4 32.6
617.7 -96.7 32.6
611.7 -98.4 32.9
619.7 -104.0 32.5
611.7 -105.0 32.9
609.7 -111.0 32.9
607.6 -113.7 33.0
607.6 -117.0 33.0
605.6 -126.1 33.1
599.6 -127.2 33.3
599.5 -130.4 33.3
595.5 -132.2 33.5
595.5 -138.5 33.5
599.5 -143.3 33.3
591.5 -143.3 33.7
590.5 -146.1 33.7
593.4 -150.4 33.6
591.4 -152.8 33.6
584.4 -156.0 33.9
586.4 -160.0 33.9
588.3 -167.2 33.8
584.3 -168.4 33.9
582.3 -170.6 34.0
576.3 -179.9 34.3
574.3 -181.9 34.3
576.2 -186.0 34.2
572.2 -186.9 34.4
568.2 -187.8 34.6
570.2 -191.8 34.5
568.2 -193.7 34.6
568.2 -196.7 34.6
568.2 -199.7 34.6
562.2 -199.2 34.8
564.1 -203.3 34.7
562.1 -205.1 34.8
560.1 -206.8 34.9
566.1 -213.4 34.6
558.1 -211.5 35.0
560.1 -215.6 34.9
556.1 -216.0 35.1
558.0 -220.2 35.0
554.0 -220.5 35.1
552.0 -222.1 35.2
552.0 -227.8 35.2
554.0 -234.9 35.1
549.0 -234.3 35.3
548.9 -237.1 35.3
543.0 -235.8 35.6
546.9 -241.4 35.4
538.9 -241.3 35.7
542.9 -246.9 35.6
542.9 -249.7 35.6
542.8 -255.3 35.6
536.9 -253.5 35.8
532.8 -255.9 36.0
534.8 -260.2 35.9
528.8 -258.2 36.1
534.8 -265.7 35.9
526.8 -261.9 36.2
526.8 -264.6 36.2
530.7 -278.6 36.0
526.7 -277.9 36.2
524.7 -278.9 36.3
501.4 -333.5 37.2
497.4 -334.1 37.4
497.4 -336.5 37.4
493.4 -336.9 37.5
497.3 -346.3 37.3
493.3 -349.0 37.5
495.3 -353.8 37.4
493.3 -358.7 37.5
489.3 -358.7 37.7
485.3 -356.2 37.8
489.2 -365.9 37.7
339.7 211.1 43.6
346.7 212.8 43.3
346.7 209.0 43.3
347.7 208.8 43.2
345.6 205.3 43.3
352.7 211.6 43.0
345.6 198.9 43.3
348.6 200.8 43.2
349.6 200.5 43.1
353.6 200.6 42.9
358.6 202.9 42.7
367.5 191.6 42.2
365.5 188.4 42.3
365.5 187.0 42.3
372.5 191.6 42.0
374.5 190.4 41.9
370.5 185.5 42.1
378.5 189.2 41.7
376.5 183.0 41.8
385.5 187.1 41.3
391.5 188.6 41.0
386.5 183.1 41.3
393.5 183.6 40.9
394.5 182.7 40.9
392.5 179.6 41.0
394.4 176.1 40.9
399.4 177.9 40.6
411.4 172.1 40.0
411.4 170.3 40.0
412.4 169.2 39.9
423.4 166.7 39.4
421.3 161.8 39.5
421.3 160.0 39.5
426.3 159.0 39.2
431.3 157.9 39.0
441.3 157.2 38.5
437.3 153.2 38.7
445.3 153.2 38.3
443.3 150.2 38.4
445.2 149.1 38.3
447.2 148.0 38.2
451.2 147.8 38.0
453.2 146.6 37.9
459.2 147.2 37.6
457.2 142.0 37.7
465.2 136.7 37.3
472.2 137.2 36.9
474.1 133.5 36.8
480.1 133.5 36.5
484.1 132.6 36.3
482.1 129.6 36.4
490.1 130.0 36.0
488.1 127.0 36.1
496.1 127.2 35.7
502.1 126.8 35.4
504.1 124.9 35.3
500.0 121.2 35.5
508.0 121.2 35.1
509.0 118.9 35.0
509.0 116.4 35.0
513.0 115.0 34.8
525.0 107.8 34.2
532.9 107.0 33.8
536.9 105.3 33.6
534.9 102.1 33.7
544.9 101.5 33.2
555.9 98.2 32.7
553.9 94.9 32.8
557.8 92.8 32.6
563.8 91.0 32.3
571.8 86.4 31.9
575.8 84.0 31.6
577.8 81.3 31.5
585.7 79.4 31.1
587.7 76.5 31.0
591.7 73.9 30.8
598.7 71.6 30.5
604.7 69.1 30.2
610.7 66.4 29.9
612.6 63.3 29.8
614.6 60.2 29.7
632.6 54.9 28.8
630.6 51.3 28.9
639.5 48.4 28.4
645.5 45.2 28.1
641.5 41.4 28.3
647.5 38.1 28.0
653.4 34.7 27.7
663.4 31.3 27.2
659.4 27.6 27.4
661.4 23.9 27.3
669.3 20.2 26.9
673.3 16.4 26.7
671.3 12.7 26.8
663.3 9.2 27.2
665.3 5.4 27.1
661.2 -1.8 27.2
657.2 -8.9 27.4
651.1 -15.7 27.7
657.1 -19.8 27.4
655.1 -23.3 27.5
649.1 -26.3 27.8
653.1 -30.3 27.6
649.0 -33.4 27.8
647.0 -36.8 27.9
639.0 -39.3 28.3
641.0 -43.1 28.2
639.0 -46.3 28.3
635.0 -49.2 28.5
638.9 -53.3 28.3
631.9 -55.6 28.6
636.9 -59.9 28.4
634.9 -63.1 28.5
629.9 -65.6 28.7
631.8 -69.4 28.6
621.8 -77.5 29.1
625.8 -81.8 28.9
621.8 -84.3 29.1
621.7 -87.7 29.1
621.7 -91.1 29.1
623.7 -95.0 29.0
615.7 -96.2 29.4
619.7 -100.6 29.2
613.7 -102.3 29.5
611.6 -105.0 29.6
607.6 -110.4 29.8
611.6 -114.9 29.5
607.6 -116.9 29.7
605.6 -119.6 29.8
607.5 -123.5 29.7
603.5 -125.4 29.9
603.5 -128.6 29.9
601.5 -131.2 30.0
597.5 -132.9 30.2
601.4 -140.8 30.0
593.4 -140.9 30.4
593.4 -147.3 30.4
593.4 -150.4 30.4
593.4 -153.6 30.4
588.4 -154.6 30.6
590.3 -158.6 30.5
590.3 -161.8 30.5
590.3 -164.9 30.5
586.3 -166.2 30.7
586.3 -169.3 30.7
580.3 -172.7 31.0
576.2 -176.8 31.2
574.2 -187.9 31.3
572.2 -189.9 31.4
570.2 -191.8 31.5
568.1 -196.7 31.6
560.0 -215.6 32.0
560.0 -224.3 32.0
546.9 -241.4 32.6
542.9 -244.1 32.8
542.8 -246.9 32.8
540.8 -248.3 32.9
540.8 -251.0 32.9
538.8 -255.0 33.0
538.8 -257.8 33.0
532.8 -255.9 33.3
530.8 -257.1 33.4
532.8 -261.3 33.3
532.8 -264.1 33.3
532.7 -266.8 33.3
530.7 -267.9 33.4
528.7 -268.9 33.5
530.7 -275.9 33.3
530.7 -278.6 33.3
528.6 -282.3 33.4
522.6 -285.1 33.7
522.6 -287.7 33.7
522.6 -293.0 33.7
518.6 -292.0 33.9
508.6 -293.0 34.4
516.5 -303.1 34.0
516.5 -308.3 34.0
512.5 -307.0 34.2
508.5 -305.7 34.4
506.5 -311.3 34.5
508.5 -315.8 34.4
506.5 -316.3 34.5
503.5 -318.2 34.6
503.4 -320.7 34.6
505.4 -325.3 34.5
503.4 -325.7 34.6
501.4 -328.6 34.7
501.4 -333.5 34.7
499.3 -336.3 34.8
497.3 -339.0 34.9
493.3 -339.3 35.1
493.3 -349.0 35.1
495.2 -353.8 35.0
487.3 -349.2 35.4
489.2 -356.3 35.3
493.2 -363.5 35.1
485.2 -356.2 35.5
485.2 -360.9 35.5
485.2 -363.3 35.5
340.7 212.3 42.4
343.7 212.0 42.2
346.7 212.8 42.0
348.6 209.9 41.9
346.6 194.8 42.0
359.6 206.7 41.3
357.6 196.4 41.4
365.6 202.7 40.9
361.6 197.5 41.1
360.5 189.6 41.2
367.5 191.6 40.8
366.5 189.3 40.8
369.5 189.0 40.7
375.5 191.2 40.3
382.5 183.2 39.9
388.5 186.3 39.6
387.5 183.9 39.6
387.5 182.3 39.6
389.5 182.2 39.5
390.4 181.3 39.4
391.4 178.8 39.4
392.4 177.9 39.3
395.4 176.8 39.2
400.4 176.9 38.9
402.4 174.9 38.7
404.4 174.5 38.6
403.4 172.1 38.7
412.4 171.0 38.2
414.4 170.4 38.1
427.3 161.5 37.3
429.3 160.7 37.2
433.3 159.0 36.9
437.3 159.1 36.7
435.3 156.1 36.8
437.3 155.2 36.7
437.2 153.2 36.7
445.2 153.2 36.2
447.2 152.1 36.1
447.2 150.0 36.1
445.2 147.1 36.2
461.2 145.9 35.3
461.1 139.4 35.3
465.1 136.7 35.1
474.1 138.0 34.6
476.1 136.5 34.4
472.1 130.5 34.7
482.1 129.6 34.1
494.1 129.0 33.4
494.0 124.2 33.4
502.0 124.3 32.9
500.0 121.2 33.0
508.0 121.2 32.6
508.0 118.7 32.6
519.0 116.7 31.9
519.0 114.1 31.9
522.9 112.5 31.7
522.9 109.9 31.7
528.9 108.8 31.4
540.9 103.4 30.7
546.9 102.0 30.3
551.8 97.4 30.0
561.8 96.4 29.4
557.8 92.8 29.7
561.8 90.6 29.4
565.8 88.4 29.2
565.8 85.4 29.2
573.7 83.7 28.7
581.7 81.9 28.3
587.7 79.7 27.9
592.7 77.2 27.6
594.7 74.3 27.5
600.6 71.9 27.2
612.6 66.7 26.5
612.6 63.4 26.5
618.6 60.6 26.1
624.5 57.7 25.8
632.5 54.9 25.3
628.5 51.2 25.5
630.5 47.9 25.4
647.5 45.3 24.4
647.4 41.7 24.4
649.4 38.2 24.3
667.4 35.1 23.3
667.3 27.7 23.3
675.3 16.4 22.8
671.2 12.7 23.0
669.2 9.0 23.1
665.2 5.4 23.4
661.2 -1.8 23.6
661.1 -5.5 23.6
659.1 -9.0 23.7
663.1 -12.9 23.4
657.1 -16.2 23.8
657.1 -19.8 23.8
653.0 -23.1 24.0
647.0 -29.6 24.3
647.0 -36.8 24.3
641.0 -39.5 24.7
640.9 -43.0 24.7
640.9 -46.6 24.7
640.9 -50.1 24.7
634.9 -52.6 25.0
636.9 -56.5 24.9
634.8 -59.6 25.0
631.8 -62.5 25.2
627.8 -65.2 25.4
629.8 -69.0 25.3
627.8 -72.0 25.4
623.7 -78.0 25.6
625.7 -81.8 25.5
627.7 -85.7 25.4
619.7 -87.2 25.8
619.7 -90.5 25.8
621.6 -94.4 25.7
617.6 -96.7 25.9
613.6 -102.3 26.1
609.6 -107.7 26.4
607.6 -110.4 26.5
609.5 -114.3 26.4
607.5 -116.9 26.5
607.5 -120.2 26.5
607.5 -123.5 26.5
601.5 -124.7 26.8
597.5 -126.5 27.0
599.4 -133.6 26.9
599.4 -136.9 26.9
595.4 -141.7 27.1
595.4 -144.9 27.1
593.4 -147.3 27.2
593.3 -150.4 27.2
591.3 -152.8 27.4
590.3 -155.5 27.4
586.3 -156.9 27.6
588.2 -167.1 27.5
584.2 -168.4 27.7
582.2 -173.6 27.8
572.2 -174.9 28.4
572.1 -189.9 28.4
574.1 -194.0 28.3
576.1 -198.1 28.2
564.1 -194.5 28.9
566.1 -198.5 28.7
566.0 -210.4 28.7
562.0 -213.9 28.9
560.0 -215.6 29.1
558.0 -217.3 29.2
558.0 -220.2 29.2
557.9 -223.1 29.2
553.9 -223.4 29.4
549.9 -223.6 29.6
549.9 -226.5 29.6
551.9 -230.6 29.5
548.9 -234.3 29.7
551.8 -239.2 29.5
546.8 -241.4 29.8
544.8 -245.6 29.9
538.8 -244.0 30.2
542.8 -249.7 30.0
542.8 -252.5 30.0
540.8 -253.8 30.1
536.8 -253.5 30.3
538.7 -257.8 30.2
536.7 -259.0 30.3
532.7 -258.6 30.6
536.7 -264.5 30.3
538.7 -271.6 30.2
534.7 -271.1 30.4
530.6 -275.9 30.6
528.6 -277.0 30.8
526.6 -277.9 30.9
524.6 -284.2 31.0
522.6 -285.1 31.1
520.6 -291.2 31.2
518.5 -294.6 31.3
514.6 -293.5 31.5
518.5 -299.8 31.3
514.5 -298.7 31.5
514.5 -301.2 31.5
516.5 -308.3 31.4
510.5 -307.6 31.8
506.5 -311.3 32.0
508.4 -315.8 31.9
508.4 -320.8 31.9
508.4 -323.4 31.9
505.4 -322.8 32.0
503.4 -323.2 32.1
503.4 -325.7 32.1
506.3 -331.4 32.0
503.3 -335.7 32.1
499.3 -341.2 32.3
497.3 -341.4 32.5
493.3 -339.3 32.7
487.2 -363.4 33.0
343.6 206.9 40.9
346.6 203.8 40.7
348.6 204.7 40.6
355.6 206.7 40.1
359.6 206.7 39.9
359.6 203.9 39.9
360.6 200.7 39.8
358.5 197.4 39.9
368.5 192.5 39.3
368.5 191.1 39.3
372.5 191.6 39.0
371.5 186.4 39.1
378.5 190.7 38.6
374.4 181.4 38.9
379.4 183.9 38.5
387.4 185.5 38.0
389.4 183.8 37.9
396.4 177.5 37.4
404.4 174.5 36.9
404.4 172.8 36.9
413.4 177.0 36.3
421.3 165.5 35.8
425.3 164.1 35.5
429.3 162.6 35.3
437.2 157.2 34.7
445.2 151.1 34.2
443.2 148.2 34.3
447.2 148.0 34.1
453.2 148.7 33.7
455.2 147.5 33.6
451.1 141.6 33.8
459.1 142.9 33.3
457.1 139.9 33.4
465.1 141.1 32.9
467.1 137.5 32.8
470.1 136.5 32.6
474.1 135.8 32.3
476.1 132.0 32.2
482.1 131.9 31.8
484.0 128.0 31.6
490.0 125.3 31.3
494.0 124.2 31.0
496.0 122.4 30.9
504.0 122.4 30.3
502.0 119.4 30.5
506.0 118.1 30.2
507.9 116.1 30.1
516.9 116.1 29.5
514.9 113.0 29.6
524.9 110.4 29.0
528.9 108.8 28.7
528.9 106.1 28.7
534.8 104.8 28.3
540.8 103.4 27.9
544.8 101.5 27.6
548.8 99.6 27.4
548.8 96.8 27.4
555.8 95.3 26.9
565.7 91.3 26.3
569.7 89.1 26.0
573.7 86.7 25.7
577.7 84.3 25.5
585.7 79.4 24.9
589.6 76.8 24.7
594.6 74.3 24.4
604.6 69.1 23.7
612.6 66.7 23.2
616.5 63.7 22.9
663.2 12.9 19.8
665.2 9.1 19.7
663.2 5.5 19.8
663.1 1.8 19.8
655.1 -5.1 20.3
655.1 -8.7 20.3
657.1 -12.5 20.1
655.0 -16.0 20.3
653.0 -19.4 20.4
651.0 -22.9 20.5
647.0 -26.1 20.8
649.0 -29.8 20.6
648.9 -33.4 20.6
646.9 -40.3 20.8
644.9 -43.6 20.9
640.9 -46.6 21.1
636.9 -49.5 21.4
638.8 -53.3 21.3
632.8 -55.8 21.7
632.8 -59.2 21.7
636.8 -63.4 21.4
631.8 -66.0 21.7
631.7 -69.4 21.7
631.7 -72.9 21.7
623.7 -74.6 22.2
625.7 -78.4 22.1
623.7 -81.4 22.2
623.7 -84.8 22.2
621.6 -91.0 22.3
621.6 -94.4 22.3
619.6 -97.3 22.4
617.6 -100.1 22.6
615.5 -106.2 22.7
613.5 -108.9 22.8
611.5 -111.6 23.0
609.5 -114.3 23.1
615.5 -119.5 22.7
605.5 -119.6 23.3
611.4 -124.8 22.9
593.5 -121.9 24.1
603.4 -128.6 23.5
597.4 -132.9 23.8
597.4 -136.1 23.8
603.3 -144.8 23.4
593.3 -144.1 24.1
599.3 -149.7 23.7
593.3 -153.6 24.1
588.3 -154.6 24.4
588.3 -157.8 24.4
590.2 -164.9 24.3
584.2 -168.4 24.6
580.2 -169.6 24.9
574.2 -172.8 25.3
580.1 -178.8 24.9
578.1 -180.9 25.0
574.1 -184.9 25.3
574.1 -194.0 25.3
570.1 -194.8 25.5
566.0 -195.6 25.8
570.0 -200.8 25.5
566.0 -201.5 25.8
562.0 -202.2 26.0
564.0 -206.3 25.9
560.0 -206.8 26.1
564.0 -212.1 25.9
557.9 -214.3 26.3
555.9 -216.0 26.4
555.9 -221.8 26.4
555.9 -224.7 26.4
553.9 -229.1 26.5
549.9 -229.3 26.8
555.8 -239.1 26.4
542.8 -235.8 27.2
551.8 -244.9 26.6
544.8 -245.6 27.1
546.7 -249.8 26.9
542.7 -249.7 27.2
544.7 -256.8 27.1
540.7 -256.6 27.3
534.7 -257.5 27.7
534.7 -260.2 27.7
536.7 -264.5 27.6
534.6 -268.4 27.7
532.6 -269.5 27.8
524.6 -270.9 28.3
528.6 -277.0 28.1
528.6 -279.6 28.1
524.6 -284.2 28.3
516.6 -279.8 28.9
518.5 -289.4 28.7
516.5 -292.8 28.8
518.5 -297.2 28.7
518.5 -302.4 28.7
516.5 -303.1 28.8
518.4 -307.6 28.7
510.5 -302.5 29.2
512.4 -309.6 29.1
508.4 -310.7 29.3
510.4 -315.3 29.2
505.3 -337.8 29.5
499.3 -333.8 29.9
497.3 -336.5 30.0
501.2 -343.4 29.8
497.2 -343.9 30.0
495.2 -351.3 30.1
493.2 -356.3 30.3
491.2 -356.3 30.4
487.2 -358.7 30.6
487.1 -361.0 30.6
491.1 -368.3 30.4
342.6 215.9 39.7
346.6 216.7 39.5
348.6 209.9 39.3
343.6 203.1 39.7
353.5 195.3 38.9
356.5 196.8 38.7
358.5 197.4 38.6
363.5 200.8 38.2
366.5 196.5 38.0
368.5 194.0 37.8
366.5 189.3 38.0
372.5 191.6 37.5
374.4 182.9 37.4
385.4 182.4 36.6
400.4 182.0 35.5
399.4 177.9 35.6
395.3 171.8 35.8
404.4 176.3 35.2
412.3 172.8 34.6
404.3 165.9 35.2
412.3 169.2 34.6
413.3 168.0 34.5
416.3 168.1 34.3
416.3 166.2 34.3
421.3 165.5 33.9
422.3 164.3 33.9
423.3 163.0 33.8
421.2 160.0 33.9
429.2 160.7 33.4
425.2 156.6 33.6
431.2 157.9 33.2
433.2 157.0 33.1
435.2 154.2 32.9
447.2 158.2 32.0
453.2 150.8 31.6
453.1 148.7 31.6
449.1 144.8 31.9
457.1 144.2 31.3
457.1 142.0 31.3
457.1 139.9 31.3
463.1 140.3 30.9
467.1 139.7 30.6
472.1 139.5 30.2
472.1 137.3 30.2
470.0 132.0 30.3
480.0 133.5 29.6
482.0 131.9 29.5
488.0 129.3 29.0
484.0 125.6 29.3
498.0 123.0 28.3
505.9 123.1 27.7
501.9 119.4 28.0
507.9 116.1 27.6
514.9 115.6 27.1
518.9 114.1 26.8
524.9 110.4 26.3
522.8 107.3 26.5
534.8 107.5 25.6
532.8 104.4 25.7
536.8 102.5 25.4
550.8 100.0 24.4
544.7 96.0 24.9
555.7 95.3 24.1
557.7 92.8 23.9
557.7 89.9 23.9
559.7 87.4 23.8
579.7 87.7 22.3
575.6 84.0 22.6
581.6 81.9 22.1
587.6 79.7 21.7
592.6 77.2 21.3
598.6 74.8 20.9
673.1 12.7 15.4
665.1 5.4 16.0
663.1 1.8 16.1
661.1 -1.8 16.2
655.0 -5.1 16.7
657.0 -8.9 16.5
653.0 -12.2 16.8
653.0 -15.8 16.8
653.0 -19.4 16.8
645.0 -22.3 17.4
644.9 -25.8 17.4
646.9 -29.6 17.2
644.9 -32.9 17.4
644.9 -36.5 17.4
644.8 -40.0 17.3
640.8 -43.0 17.6
636.8 -46.0 17.9
636.8 -49.5 17.9
634.8 -52.6 18.1
640.8 -57.1 17.6
632.7 -62.7 18.2
631.7 -65.9 18.3
631.7 -69.4 18.3
632.7 -73.1 18.2
623.7 -74.6 18.8
623.6 -78.0 18.8
625.6 -85.2 18.7
621.6 -87.7 19.0
623.6 -91.5 18.8
621.5 -94.4 18.9
621.5 -97.8 18.9
615.5 -102.8 19.4
615.5 -106.2 19.4
613.5 -108.9 19.5
605.5 -109.8 20.1
607.4 -113.7 19.9
609.4 -120.9 19.8
611.4 -124.8 19.6
605.4 -126.1 20.1
603.4 -128.6 20.2
597.3 -132.9 20.6
599.3 -136.8 20.5
593.3 -137.8 20.9
597.3 -142.5 20.6
591.3 -143.3 21.1
593.3 -147.3 20.9
595.2 -151.3 20.8
595.2 -154.4 20.8
590.2 -161.8 21.1
588.2 -164.0 21.3
590.1 -168.0 21.1
586.1 -169.3 21.4
586.1 -175.6 21.4
582.1 -176.7 21.7
576.1 -176.8 22.1
576.1 -185.9 22.1
576.0 -189.0 22.1
578.0 -193.1 21.9
572.0 -192.9 22.4
574.0 -203.0 22.2
564.0 -200.4 23.0
566.0 -204.5 22.8
562.0 -205.1 23.1
561.9 -208.0 23.1
567.9 -214.5 22.6
555.9 -216.0 23.5
559.8 -224.3 23.2
551.9 -222.1 23.8
553.8 -226.2 23.6
549.8 -226.5 23.9
548.8 -228.6 24.0
548.8 -234.3 24.0
544.8 -234.4 24.3
546.7 -244.2 24.1
546.7 -247.0 24.1
542.7 -249.7 24.4
538.7 -249.5 24.7
538.7 -255.0 24.7
532.7 -253.2 25.1
536.6 -264.5 24.8
532.6 -264.0 25.1
534.6 -271.1 25.0
528.6 -274.3 25.4
526.6 -275.3 25.5
524.6 -276.2 25.7
526.5 -285.9 25.5
526.5 -291.3 25.5
512.4 -299.3 26.5
512.4 -304.4 26.5
514.4 -311.5 26.4
510.4 -312.7 26.7
506.4 -311.2 27.0
510.3 -317.8 26.7
510.3 -320.3 26.6
510.3 -325.4 26.6
505.3 -325.3 27.0
497.2 -336.5 27.6
493.2 -336.9 27.9
499.2 -346.1 27.4
497.1 -353.6 27.6
495.1 -353.8 27.7
491.1 -353.9 28.0
493.1 -358.7 27.8
493.1 -361.1 27.8
489.1 -361.1 28.1
338.6 210.0 38.8
346.6 216.7 38.2
343.6 212.0 38.4
351.6 205.2 37.8
353.6 206.0 37.6
356.5 205.0 37.4
354.5 201.6 37.5
354.5 200.3 37.5
358.5 202.9 37.2
354.5 196.2 37.5
360.5 200.7 37.0
366.5 203.7 36.5
368.5 194.0 36.4
374.5 197.9 35.9
368.4 188.2 36.4
375.4 189.7 35.8
377.4 182.3 35.6
390.4 181.3 34.6
393.4 181.9 34.4
399.4 184.7 33.9
399.4 183.0 33.9
399.4 181.3 33.9
406.3 177.6 33.3
400.3 171.9 33.8
409.3 174.4 33.1
408.3 172.0 33.1
414.3 174.0 32.7
422.2 166.1 32.0
426.2 166.6 31.7
422.2 158.7 32.0
425.2 154.7 31.8
431.2 152.1 31.3
443.2 154.2 30.3
441.1 151.2 30.5
457.1 148.4 29.2
451.1 143.6 29.7
457.1 144.2 29.2
467.0 139.7 28.4
468.0 137.9 28.3
470.0 136.5 28.1
472.0 132.8 28.0
478.0 132.8 27.5
482.0 131.9 27.2
482.0 129.6 27.2
487.9 127.0 26.7
499.9 123.7 25.7
505.9 120.6 25.2
507.9 118.7 25.1
510.9 114.5 24.8
516.8 113.6 24.3
514.8 110.5 24.5
520.8 109.4 24.0
524.8 107.8 23.7
520.8 104.2 24.0
530.8 103.9 23.2
542.7 101.1 22.2
544.7 98.8 22.1
627.6 -75.4 15.1
619.6 -77.1 15.8
623.6 -84.8 15.4
623.5 -88.1 15.4
623.5 -91.5 15.4
619.5 -93.9 15.7
617.5 -96.7 15.9
619.5 -100.6 15.7
615.5 -102.8 16.0
611.4 -105.0 16.4
613.4 -108.9 16.2
615.4 -112.8 16.0
611.4 -114.9 16.3
605.4 -116.3 16.8
605.3 -126.1 16.8
605.3 -129.3 16.8
599.3 -130.4 17.3
595.3 -132.2 17.6
599.3 -136.8 17.3
595.3 -138.5 17.6
601.2 -144.0 17.1
593.2 -144.1 17.8
593.2 -147.3 17.7
593.2 -150.4 17.7
595.2 -154.4 17.6
593.2 -156.8 17.7
590.1 -161.8 18.0
590.1 -164.9 18.0
591.1 -171.7 17.9
578.1 -168.7 18.9
582.1 -173.6 18.6
580.1 -175.7 18.8
578.1 -177.8 18.9
582.0 -182.9 18.6
576.0 -182.9 19.1
580.0 -188.0 18.7
572.0 -186.9 19.4
574.0 -194.0 19.2
570.0 -194.8 19.5
561.9 -199.2 20.2
567.9 -205.6 19.7
567.9 -211.6 19.7
561.9 -213.9 20.2
549.9 -212.3 21.1
559.8 -224.3 20.3
551.8 -222.1 20.9
553.8 -226.2 20.8
551.8 -227.8 20.9
549.8 -229.3 21.1
551.7 -236.3 20.9
546.7 -235.7 21.3
544.7 -237.2 21.5
548.7 -242.8 21.2
542.7 -241.3 21.6
538.7 -244.0 22.0
542.7 -249.7 21.6
540.7 -251.0 21.8
540.6 -253.8 21.8
534.6 -254.7 22.3
536.6 -264.5 22.1
534.6 -265.6 22.2
532.6 -266.8 22.4
530.6 -270.5 22.6
526.6 -269.9 22.9
524.5 -284.2 23.0
520.5 -285.9 23.3
522.4 -290.3 23.2
518.4 -294.6 23.5
516.4 -300.5 23.6
512.4 -299.3 24.0
518.4 -307.6 23.5
514.4 -306.4 23.8
508.4 -305.7 24.3
516.3 -316.1 23.6
508.3 -313.2 24.3
508.3 -315.8 24.3
510.2 -330.5 24.1
503.2 -328.2 24.7
503.2 -330.7 24.7
499.1 -356.0 24.9
491.1 -353.9 25.6
495.1 -361.0 25.3
489.1 -361.1 25.7
489.1 -363.5 25.7
344.6 211.8 37.1
341.6 207.2 37.3
343.6 206.9 37.1
348.6 209.9 36.7
348.5 204.7 36.7
349.5 200.5 36.6
355.5 195.9 36.1
355.4 190.5 36.1
361.5 194.7 35.5
370.5 195.8 34.8
369.4 192.0 34.8
377.4 189.9 34.1
377.4 186.9 34.1
379.4 187.0 34.0
385.4 188.7 33.4
386.4 187.9 33.3
388.4 187.9 33.2
394.4 184.3 32.6
393.3 181.9 32.7
395.3 181.8 32.5
390.3 176.5 33.0
400.3 182.0 32.1
397.3 178.2 32.4
406.3 179.4 31.6
406.3 177.6 31.6
403.3 173.9 31.8
408.3 173.7 31.4
408.3 172.0 31.4
410.3 171.5 31.2
415.2 167.4 30.8
422.2 158.7 30.1
427.2 159.6 29.7
433.2 159.0 29.2
431.2 156.0 29.4
429.1 153.0 29.5
445.1 155.2 28.1
443.1 152.2 28.3
449.1 151.0 27.8
451.1 149.9 27.6
443.1 144.1 28.3
453.1 144.5 27.4
461.0 139.4 26.7
468.0 140.1 26.1
470.0 138.7 25.9
468.0 135.7 26.1
472.0 132.8 25.7
482.0 134.2 24.9
482.0 131.9 24.8
487.9 129.3 24.3
485.9 126.3 24.5
489.9 125.3 24.1
491.9 123.6 24.0
499.9 123.7 23.3
501.9 121.8 23.1
503.9 120.0 22.9
512.8 117.6 22.1
588.1 -164.0 15.0
582.1 -167.5 15.5
582.0 -170.5 15.5
582.0 -173.6 15.5
580.0 -175.7 15.7
582.0 -179.8 15.5
580.0 -181.9 15.7
576.0 -185.9 16.0
570.0 -185.8 16.6
573.9 -194.0 16.2
573.9 -197.0 16.2
567.9 -199.7 16.7
565.9 -204.5 16.9
565.8 -207.4 16.9
567.8 -211.6 16.7
561.8 -210.9 17.2
561.8 -213.9 17.2
555.8 -221.8 17.7
557.7 -225.9 17.6
551.8 -224.9 18.1
553.7 -229.1 17.9
549.7 -229.3 18.3
548.7 -240.0 18.3
546.7 -241.4 18.5
540.7 -239.9 19.0
548.6 -248.5 18.3
540.6 -251.0 19.0
546.6 -261.1 18.5
534.6 -262.9 19.5
536.5 -270.0 19.3
530.5 -267.8 19.9
528.5 -271.6 20.0
528.5 -274.3 20.0
526.5 -275.3 20.2
526.5 -277.9 20.2
526.5 -280.6 20.2
526.4 -283.3 20.2
526.4 -285.9 20.2
514.5 -283.2 21.3
516.4 -292.7 21.1
516.4 -295.3 21.1
516.4 -297.9 21.1
514.3 -303.8 21.2
512.3 -304.4 21.4
514.3 -308.9 21.2
514.3 -311.5 21.2
512.3 -312.1 21.4
510.3 -315.2 21.6
512.2 -319.8 21.4
506.3 -318.8 21.9
499.2 -331.3 22.5
505.1 -342.8 22.0
499.1 -346.1 22.5
495.1 -351.3 22.8
493.1 -356.2 23.0
495.0 -361.0 22.8
487.1 -356.3 23.5
344.6 211.8 35.8
341.5 207.2 36.1
347.6 212.7 35.5
349.5 199.2 35.3
359.5 206.7 34.4
359.5 201.1 34.3
355.4 194.5 34.7
358.5 196.0 34.4
368.4 195.4 33.5
368.4 194.0 33.5
369.4 192.0 33.4
365.4 187.0 33.8
370.4 188.4 33.3
376.4 189.1 32.7
375.4 185.2 32.8
388.4 186.3 31.6
393.3 183.6 31.1
397.3 183.2 30.7
396.3 180.8 30.8
397.3 178.2 30.7
399.3 176.3 30.5
403.3 177.3 30.1
407.3 173.1 29.7
410.3 173.3 29.4
413.2 173.4 29.2
407.2 167.8 29.7
410.2 167.9 29.4
414.2 165.0 29.1
423.2 168.6 28.2
429.1 156.9 27.6
435.1 154.2 27.0
443.1 156.2 26.3
443.1 154.2 26.3
445.1 153.2 26.1
441.1 149.2 26.5
449.1 151.0 25.7
453.1 148.7 25.3
461.0 143.8 24.6
463.0 140.3 24.4
472.0 139.5 23.5
473.9 135.8 23.3
477.9 135.0 22.9
481.9 134.2 22.5
485.9 133.3 22.2
487.9 129.4 22.0
553.7 -220.5 15.0
551.7 -222.1 15.2
548.7 -228.6 15.5
549.7 -232.1 15.4
551.6 -239.2 15.2
549.6 -240.7 15.4
544.5 -259.6 15.9
536.5 -261.7 16.6
532.5 -264.0 17.0
532.5 -266.7 17.0
532.5 -269.5 17.0
528.5 -268.9 17.4
526.5 -269.9 17.6
524.5 -270.9 17.7
528.4 -279.6 17.4
528.4 -282.3 17.3
528.4 -287.7 17.3
512.4 -289.1 18.9
514.4 -293.5 18.7
518.3 -302.4 18.3
514.3 -301.2 18.7
514.3 -306.4 18.7
512.2 -322.4 18.8
508.2 -328.4 19.2
501.2 -331.0 19.9
503.1 -335.7 19.7
503.1 -338.1 19.7
505.1 -345.3 19.5
499.1 -341.2 20.0
501.1 -348.4 19.8
497.1 -346.3 20.2
495.1 -346.4 20.4
497.0 -358.5 20.2
339.5 209.9 35.0
344.5 206.8 34.5
346.5 207.7 34.3
346.5 203.8 34.3
348.5 203.4 34.1
351.5 205.2 33.8
347.5 198.4 34.2
350.5 200.2 33.9
356.5 205.0 33.3
362.5 201.3 32.7
361.4 190.5 32.7
375.4 189.7 31.3
381.3 187.0 30.7
384.3 183.2 30.4
386.3 183.1 30.2
392.3 179.6 29.5
397.3 181.6 29.0
397.3 179.9 29.0
397.3 178.2 29.0
399.3 177.9 28.8
399.3 176.3 28.8
404.2 174.5 28.3
410.2 176.8 27.7
408.2 168.5 27.9
415.2 169.3 27.2
419.2 168.1 26.8
421.2 167.4 26.5
426.2 164.7 26.0
429.1 162.6 25.7
429.1 158.8 25.7
439.1 162.2 24.7
435.1 154.2 25.1
441.1 155.2 24.5
439.1 152.2 24.7
441.1 151.2 24.5
445.0 151.2 24.1
453.0 150.8 23.2
449.0 146.9 23.6
457.0 148.4 22.8
453.0 144.5 23.2
459.0 142.9 22.6
463.0 142.4 22.2
468.0 142.3 21.7
467.9 140.1 21.7
522.4 -282.4 15.3
522.3 -287.7 15.3
520.3 -304.3 15.5
516.3 -303.1 15.9
514.3 -303.8 16.1
518.2 -310.2 15.7
514.2 -311.5 16.1
514.2 -314.1 16.1
514.2 -316.7 16.1
514.2 -319.2 16.1
506.2 -318.8 16.9
512.1 -327.5 16.3
510.1 -328.0 16.5
510.1 -330.5 16.5
503.1 -330.7 17.2
505.1 -335.3 17.0
501.1 -333.5 17.4
503.1 -338.1 17.2
497.1 -343.8 17.8
493.0 -346.6 18.2
495.0 -351.3 18.0
493.0 -353.8 18.2
493.0 -356.2 18.2
489.0 -358.7 18.6
492.9 -368.3 18.2
488.9 -365.8 18.6
345.5 211.7 33.1
347.5 208.8 32.9
350.5 209.4 32.6
352.5 210.2 32.4
351.4 198.6 32.5
361.5 207.3 31.4
358.4 196.0 31.7
363.4 189.5 31.1
371.4 193.7 30.2
377.4 196.0 29.6
374.3 188.9 29.9
384.3 186.3 28.8
388.3 187.9 28.4
388.3 186.3 28.4
386.3 181.5 28.6
393.3 185.2 27.8
390.3 181.4 28.1
395.3 181.8 27.6
407.2 178.3 26.3
408.2 177.2 26.1
410.2 176.8 25.9
406.2 172.4 26.4
408.2 170.2 26.1
411.2 170.4 25.8
409.2 165.6 26.0
412.2 165.6 25.7
421.1 163.7 24.7
426.1 164.7 24.1
426.1 162.8 24.1
429.1 162.6 23.8
431.1 159.8 23.6
433.1 155.1 23.4
437.1 155.2 22.9
439.0 154.2 22.7
441.0 153.2 22.5
447.0 150.1 21.8
499.1 -326.4 15.1
497.0 -351.2 15.3
494.9 -356.2 15.5
492.9 -363.5 15.7
344.5 211.9 32.0
343.5 208.2 32.1
350.5 209.4 31.3
353.5 206.0 30.9
354.5 205.7 30.8
356.4 205.0 30.6
357.4 204.7 30.4
360.4 206.3 30.1
357.4 195.1 30.4
364.4 194.7 29.6
367.4 194.5 29.2
362.3 188.6 29.8
369.4 193.4 29.0
377.3 186.9 28.1
384.3 186.3 27.2
393.2 180.3 26.2
397.2 178.2 25.7
398.2 175.6 25.6
400.2 175.3 25.3
406.2 177.6 24.6
404.2 171.1 24.9
408.2 172.0 24.4
407.2 169.6 24.5
408.1 168.5 24.4
414.1 168.6 23.7
410.1 164.4 24.1
411.1 163.3 24.0
414.1 163.3 23.7
423.1 166.7 22.6
426.1 160.9 22.2
427.1 159.6 22.1
429.1 158.8 21.9
433.0 155.1 21.4
435.0 154.2 21.2
449.0 155.1 19.5
340.4 202.4 31.2
345.5 206.6 30.6
344.4 201.7 30.7
355.4 204.0 29.3
358.4 204.3 28.9
361.4 205.9 28.6
357.4 199.2 29.1
361.4 200.3 28.6
355.4 193.2 29.3
364.4 200.4 28.2
370.4 198.7 27.4
368.3 192.5 27.7
367.3 188.8 27.8
372.3 187.2 27.2
380.3 186.2 26.2
384.3 187.9 25.7
389.3 185.4 25.0
398.2 172.2 23.9
404.2 174.6 23.1
405.2 173.5 23.0
408.1 168.5 22.6
419.1 169.9 21.2
416.1 166.3 21.6
423.1 166.7 20.7
422.1 164.3 20.9
424.1 163.6 20.6
422.1 160.6 20.9
347.5 216.5 29.0
346.5 212.8 29.2
345.4 204.0 29.3
343.4 196.8 29.6
354.4 205.7 28.1
356.4 205.0 27.8
358.4 205.7 27.6
360.4 206.3 27.3
358.4 197.4 27.6
367.4 198.9 26.4
366.3 195.1 26.5
368.3 195.4 26.2
373.3 197.0 25.6
375.3 186.7 25.3
379.3 185.4 24.8
393.2 188.5 22.9
395.2 185.1 22.6
392.2 179.6 23.0
396.2 180.8 22.5
397.2 178.2 22.3
415.1 171.1 19.9
422.1 169.9 19.0
429.1 170.2 18.1
431.1 169.5 17.8
449.1 173.7 15.4
335.4 207.7 29.4
350.4 204.2 27.3
348.4 198.2 27.6
355.3 193.2 26.6
367.3 194.5 24.9
374.3 197.9 23.9
373.3 192.5 24.1
375.3 191.2 23.8
376.2 184.5 23.6
389.2 190.3 21.8
386.2 184.7 22.2
387.2 183.9 22.1
431.1 186.8 15.9
429.1 179.8 16.2
433.1 180.4 15.6
437.1 178.9 15.1
335.4 207.7 28.2
342.4 205.8 27.2
347.4 207.5 26.5
342.4 200.8 27.2
352.4 210.3 25.7
358.4 211.2 24.8
355.4 205.4 25.3
361.4 210.1 24.4
364.4 211.7 23.9
366.3 198.0 23.6
370.3 200.2 23.0
375.3 192.8 22.3
379.2 191.6 21.7
379.2 188.5 21.7
396.2 195.8 19.2
395.2 191.7 19.3
359.4 210.8 23.3
362.4 211.1 22.8
367.3 206.1 22.0
360.3 198.0 23.1
362.3 198.5 22.8
364.3 197.5 22.5
374.3 200.9 21.0
371.2 193.7 21.4
369.2 190.5 21.7
375.2 192.8 20.8
377.2 189.9 20.5
381.2 190.2 19.8
375.2 183.7 20.8
384.2 189.5 19.4
393.2 191.8 18.0
378.5 244.2 18.9
366.4 216.6 20.8
367.3 198.9 20.6
372.2 194.6 19.8
376.2 189.1 19.1
374.2 185.9 19.4
394.2 194.2 16.2
382.5 243.9 16.6
360.3 198.0 20.3
364.3 198.9 19.7
370.2 197.3 18.6
366.2 187.9 19.3
373.2 191.0 18.1
375.2 188.2 17.8
373.1 185.1 18.1
374.1 184.4 17.9
382.5 243.9 15.1
361.3 208.7 18.8
364.3 210.3 18.3
361.2 198.9 18.8
364.2 191.8 18.2
365.2 191.3 18.1
371.2 189.3 17.0
373.2 189.6 16.6
375.1 189.8 16.3
376.1 189.1 16.1
378.1 186.2 15.7
366.3 215.2 16.5
363.3 210.7 17.0
359.3 203.9 17.8
360.2 198.0 17.6
367.1 188.8 16.3
370.1 189.9 15.7
