873.4 402.7 80.3
873.3 386.9 80.3
877.3 383.7 80.4
877.3 378.4 80.4
881.3 375.2 80.6
885.2 371.8 80.7
881.2 359.2 80.6
881.0 332.7 80.5
892.0 326.7 81.0
904.0 326.4 81.5
899.9 319.3 81.3
895.9 312.2 81.1
903.9 309.9 81.4
911.9 307.6 81.8
915.9 303.5 81.9
919.8 299.5 82.1
923.8 295.3 82.2
934.8 287.9 82.7
930.7 280.8 82.5
934.7 276.5 82.7
938.7 272.1 82.8
873.3 397.4 75.0
881.1 359.2 75.3
887.9 330.4 75.5
895.9 328.5 75.7
899.9 324.7 75.8
887.8 314.3 75.4
903.8 315.4 76.0
907.8 311.5 76.1
911.8 307.6 76.2
911.8 302.0 76.2
923.8 301.0 76.6
923.7 295.3 76.6
919.7 288.3 76.5
930.7 286.5 76.8
934.7 282.2 77.0
938.6 277.8 77.1
934.6 270.8 76.9
942.6 267.6 77.2
954.6 265.6 77.6
1098.8 282.9 82.4
1102.7 277.0 82.5
1102.7 270.0 82.5
1106.7 264.1 82.6
1094.6 254.0 82.2
1094.6 247.1 82.2
1102.5 242.1 82.5
1098.4 227.2 82.3
1106.4 222.0 82.6
1106.4 215.0 82.6
1106.3 207.9 82.6
1098.3 199.4 82.3
1106.2 193.9 82.5
1106.2 186.9 82.5
1102.2 179.2 82.4
1102.1 172.2 82.4
1102.1 165.2 82.4
1106.0 158.8 82.5
1106.0 151.8 82.5
1106.0 144.8 82.5
1105.9 137.8 82.5
1105.9 130.7 82.5
1101.8 123.3 82.3
1105.8 116.7 82.4
1101.7 109.3 82.3
1101.7 102.3 82.3
1101.7 95.3 82.3
1097.6 88.1 82.1
1097.6 81.1 82.1
1097.5 74.1 82.1
1209.6 -939.6 84.7
1177.7 -932.8 83.7
1154.6 -933.3 82.9
1154.6 -940.8 82.9
1138.6 -932.4 82.4
1134.6 -935.7 82.3
1119.6 -935.2 81.8
1111.6 -934.2 81.5
1103.6 -933.1 81.2
1099.5 -943.1 81.1
1060.4 -963.1 79.8
1064.2 -1001.3 79.9
1068.1 -1012.6 80.0
1060.0 -1037.0 79.7
1063.9 -1048.6 79.8
1063.8 -1068.8 79.8
1128.8 642.1 76.6
1136.8 640.1 76.8
873.2 397.4 69.8
877.1 383.7 69.9
885.1 377.2 70.1
877.0 362.6 69.9
881.0 359.2 70.0
880.9 348.6 69.9
887.9 341.1 70.1
884.9 334.5 70.0
884.8 329.1 70.0
891.8 326.8 70.2
899.8 319.3 70.4
907.8 317.0 70.6
915.8 314.7 70.8
911.7 307.6 70.7
911.7 296.5 70.7
907.6 289.5 70.6
911.6 285.4 70.7
923.6 284.1 71.0
938.6 277.8 71.3
927.5 268.5 71.0
938.5 266.3 71.3
942.5 261.8 71.4
954.5 259.7 71.7
1091.4 246.4 75.2
1091.4 239.5 75.2
1098.4 234.2 75.4
1098.3 227.2 75.4
1102.3 221.1 75.5
1102.2 207.2 75.4
1102.2 200.2 75.4
1106.1 193.9 75.5
1110.1 187.6 75.6
1106.1 179.9 75.5
1106.0 172.9 75.5
1102.0 165.2 75.4
1101.9 158.2 75.4
1109.9 152.4 75.6
1109.9 145.3 75.6
1101.8 137.3 75.3
1109.8 131.2 75.5
1105.7 123.7 75.4
1105.7 116.7 75.4
1105.6 109.7 75.4
1105.6 102.7 75.4
1101.6 95.3 75.3
1105.5 88.6 75.4
1105.4 74.6 75.4
1451.6 -941.0 83.1
1412.6 -939.8 82.1
1326.6 -943.1 79.9
1287.6 -935.9 78.9
1279.6 -937.4 78.7
1263.6 -931.8 78.3
1255.5 -941.2 78.1
1224.6 -929.6 77.3
1177.5 -932.8 76.1
1158.5 -937.2 75.6
1154.5 -940.7 75.5
1138.5 -932.4 75.1
1138.5 -939.7 75.1
1111.5 -934.2 74.4
1107.5 -937.2 74.3
1091.5 -934.8 73.9
1080.5 -937.1 73.6
1060.5 -936.2 73.1
1068.4 -951.6 73.3
1064.3 -967.5 73.2
1056.2 -972.0 72.9
1063.8 -1048.5 73.1
1067.7 -1073.7 73.1
1112.7 638.7 69.1
1136.7 640.1 69.6
873.2 402.7 64.6
873.1 397.4 64.5
873.0 376.4 64.5
881.0 375.2 64.7
876.9 362.6 64.6
880.9 359.3 64.6
884.9 350.5 64.7
884.8 345.1 64.7
887.8 341.2 64.7
884.8 334.5 64.7
895.8 328.5 64.9
899.7 319.3 64.9
903.7 315.4 65.0
903.6 310.0 65.0
903.6 304.5 65.0
911.6 302.0 65.1
919.6 299.5 65.3
923.5 289.7 65.3
930.5 275.1 65.4
930.4 269.5 65.4
934.4 265.1 65.5
942.4 261.8 65.6
942.3 256.1 65.6
958.3 249.2 65.9
1098.2 220.3 68.4
1106.1 200.9 68.5
1106.0 193.9 68.5
1106.0 186.9 68.5
1110.0 180.6 68.6
1101.9 172.2 68.4
1097.9 164.6 68.3
1109.8 159.4 68.5
1105.8 151.8 68.5
1117.8 146.4 68.7
1101.7 137.3 68.4
1101.7 130.3 68.4
1101.6 123.3 68.3
1097.6 115.9 68.3
1105.5 109.7 68.4
1101.5 102.3 68.3
1109.5 96.0 68.5
1105.4 88.6 68.4
1101.4 81.4 68.3
1093.3 67.0 68.1
1435.5 -938.5 73.1
1412.5 -939.8 72.7
1388.5 -939.7 72.3
1373.4 -946.0 72.0
1318.5 -936.4 71.0
1295.4 -942.7 70.6
1263.5 -931.8 70.0
1255.4 -941.2 69.9
1224.5 -929.6 69.3
1209.4 -939.6 69.1
1193.4 -940.3 68.8
1185.4 -940.4 68.6
1162.4 -941.1 68.2
1107.3 -944.3 67.2
1099.3 -943.1 67.1
1080.4 -937.1 66.7
1060.4 -936.2 66.4
1060.3 -942.9 66.4
1068.2 -971.9 66.5
1064.1 -981.0 66.4
1071.9 -1010.4 66.5
1063.9 -1008.0 66.4
1067.7 -1053.3 66.4
1059.6 -1063.9 66.2
877.1 404.9 59.3
873.1 397.4 59.3
872.9 376.4 59.3
872.9 371.2 59.3
876.9 367.9 59.3
876.8 357.3 59.3
884.8 355.8 59.4
887.8 346.5 59.4
891.8 343.0 59.4
895.7 339.3 59.5
887.7 330.4 59.4
899.6 313.8 59.5
911.6 307.6 59.6
915.5 303.6 59.6
915.5 298.0 59.6
903.4 282.5 59.5
915.4 281.3 59.6
919.4 277.1 59.6
923.3 267.2 59.7
930.3 263.8 59.7
930.3 258.1 59.7
942.3 256.1 59.9
938.2 249.1 59.8
950.2 246.8 59.9
958.1 225.6 60.0
973.1 223.5 60.1
1094.0 212.5 61.4
1106.0 208.0 61.5
1102.0 200.2 61.5
1105.9 193.9 61.5
1105.9 186.9 61.5
1109.9 180.6 61.5
1101.8 172.2 61.4
1097.8 164.6 61.4
1101.7 158.3 61.4
1101.7 151.3 61.4
1113.7 145.9 61.5
1097.6 136.8 61.3
1109.6 131.2 61.5
1097.5 122.9 61.3
1097.5 115.9 61.3
1101.4 109.3 61.3
1101.4 102.3 61.3
1105.4 95.7 61.4
1101.3 88.4 61.3
1105.3 81.6 61.3
1101.2 74.4 61.3
1093.2 67.0 61.2
1615.3 -955.1 65.4
1435.4 -938.5 63.6
1420.3 -946.0 63.4
1388.3 -939.6 63.1
1318.3 -936.4 62.4
1302.4 -931.6 62.2
1287.3 -935.8 62.0
1279.3 -945.7 61.9
1271.3 -947.1 61.8
1224.3 -929.6 61.4
1209.3 -939.6 61.2
1193.3 -940.2 61.0
1185.3 -940.4 61.0
1158.2 -944.6 60.7
1138.3 -932.4 60.5
1134.3 -935.7 60.4
1115.3 -938.3 60.2
1103.2 -940.2 60.1
1087.3 -930.6 59.9
1080.3 -937.1 59.9
1076.2 -939.7 59.8
1060.3 -936.2 59.7
865.0 393.1 54.0
872.9 386.9 54.0
872.9 376.4 54.0
876.9 373.2 54.0
876.8 367.9 54.0
876.8 357.3 54.0
880.7 354.0 54.0
884.7 345.2 54.0
887.6 335.8 54.0
891.6 332.2 54.0
895.6 328.5 54.0
903.5 315.5 54.0
907.5 311.6 54.0
903.4 288.0 54.0
911.3 285.4 54.0
911.3 279.9 54.0
915.3 275.7 54.0
923.3 272.8 54.0
919.2 265.9 54.0
923.2 261.5 54.0
934.2 253.6 54.0
938.1 249.1 54.1
946.1 245.7 54.1
954.1 242.1 54.1
930.0 224.0 54.0
942.0 221.4 54.0
969.0 222.5 54.1
965.9 215.7 54.1
965.9 209.8 54.1
984.9 202.1 54.1
992.8 197.7 54.1
1105.9 208.0 54.5
1105.9 201.0 54.5
1105.8 193.9 54.5
1109.8 187.6 54.5
1105.8 179.9 54.5
1105.7 172.9 54.4
1101.7 165.3 54.4
1105.6 158.9 54.4
1101.6 151.3 54.4
1105.5 144.8 54.4
1101.5 130.3 54.4
1101.4 116.3 54.4
1101.3 109.3 54.4
1097.3 102.0 54.3
1101.3 95.4 54.3
1105.2 88.7 54.3
1093.2 80.9 54.3
1101.1 74.4 54.3
1097.1 67.2 54.3
1443.2 -944.6 54.0
1373.2 -946.0 53.8
1310.2 -929.7 53.7
1302.2 -931.6 53.6
1287.2 -935.8 53.6
1279.2 -937.3 53.6
1201.2 -932.2 53.3
1193.2 -940.2 53.3
1185.2 -940.4 53.3
1166.2 -937.4 53.2
1158.2 -937.2 53.2
1150.2 -936.8 53.2
1138.2 -932.4 53.2
1134.2 -935.7 53.1
1107.2 -930.1 53.1
1103.1 -940.2 53.1
1095.2 -938.9 53.0
1084.1 -941.3 53.0
1080.1 -943.9 53.0
1060.2 -936.1 52.9
1056.1 -938.5 52.9
1068.0 -971.9 52.9
1059.9 -976.5 52.9
1059.8 -996.7 52.9
1059.8 -1003.4 52.8
1063.5 -1048.5 52.8
1071.3 -1078.5 52.8
861.0 406.4 48.9
856.9 399.1 48.9
864.9 398.3 48.8
864.9 393.1 48.8
864.9 387.9 48.8
872.9 386.9 48.8
864.8 372.4 48.8
872.8 371.2 48.8
868.7 364.0 48.8
872.7 360.7 48.8
872.7 355.4 48.7
880.7 354.0 48.7
872.6 344.9 48.7
887.6 346.5 48.7
884.5 334.5 48.7
891.5 332.2 48.6
884.5 323.8 48.7
899.5 324.8 48.6
899.5 319.3 48.6
899.4 313.8 48.6
907.4 311.6 48.5
907.3 295.0 48.5
907.3 289.5 48.5
907.2 284.0 48.5
915.2 281.3 48.5
911.2 274.3 48.5
915.2 270.1 48.4
919.1 265.9 48.4
923.1 261.5 48.4
930.1 252.4 48.3
934.0 247.9 48.3
942.0 244.5 48.3
945.9 228.3 48.2
957.8 213.8 48.2
953.8 206.9 48.2
961.8 202.9 48.1
976.8 200.3 48.1
988.7 196.8 48.0
1101.8 207.2 47.5
1105.8 201.0 47.5
1105.7 194.0 47.5
1101.7 186.2 47.5
1109.7 180.6 47.4
1101.6 172.2 47.4
1101.5 151.3 47.4
1109.4 145.4 47.4
1105.4 137.8 47.4
1105.4 130.8 47.4
1101.3 123.3 47.4
1101.3 116.3 47.4
1105.2 109.7 47.4
1097.2 102.0 47.4
1105.1 95.7 47.3
1109.1 89.0 47.3
1101.1 81.4 47.3
1101.0 74.4 47.3
1097.0 67.2 47.3
1529.1 -938.0 44.0
1427.0 -951.4 44.5
1341.1 -937.9 44.9
1318.1 -936.4 45.0
1287.0 -944.3 45.1
1263.1 -931.7 45.3
1255.0 -941.2 45.3
1232.1 -936.8 45.4
1232.0 -944.8 45.4
1193.0 -940.2 45.6
1177.1 -932.8 45.7
1166.1 -937.4 45.7
1146.1 -932.9 45.8
1138.1 -932.4 45.9
1059.9 -956.3 46.2
1059.9 -963.0 46.2
1051.9 -967.5 46.2
1055.7 -992.1 46.2
1063.4 -1048.5 46.1
1063.3 -1068.8 46.0
760.2 450.7 45.0
1139.3 642.1 40.6
1139.2 634.9 40.6
1155.2 630.3 40.4
868.7 374.4 43.6
872.7 371.2 43.5
876.7 367.9 43.5
868.6 358.7 43.6
872.6 355.4 43.5
880.6 354.0 43.4
887.5 346.5 43.3
895.5 344.8 43.2
887.5 335.8 43.3
891.5 332.2 43.2
887.4 325.1 43.3
899.4 324.8 43.1
895.4 317.7 43.2
903.4 315.5 43.1
903.3 310.0 43.1
911.2 296.5 42.9
911.2 285.4 42.9
915.2 281.3 42.9
919.1 277.1 42.8
919.1 271.5 42.8
923.1 267.2 42.8
927.0 262.8 42.7
919.0 254.7 42.8
938.0 254.9 42.6
942.0 250.3 42.5
941.9 244.5 42.5
941.9 238.8 42.5
937.8 226.1 42.5
945.8 222.5 42.4
961.8 220.7 42.2
961.8 214.8 42.2
957.7 207.9 42.3
965.7 203.8 42.2
972.7 199.4 42.1
1101.7 207.2 40.5
1105.7 201.0 40.5
1105.6 194.0 40.4
1097.5 171.6 40.5
1101.4 158.3 40.4
1101.4 151.3 40.4
1113.3 145.9 40.3
1101.3 137.3 40.4
1101.2 130.3 40.4
1101.2 123.3 40.4
1105.2 116.8 40.3
1101.1 109.4 40.4
1101.1 102.4 40.4
1105.0 95.7 40.3
1105.0 88.7 40.3
1097.0 81.2 40.4
1096.9 74.2 40.4
1426.9 -951.4 35.0
1372.9 -945.9 35.7
1325.9 -943.0 36.2
1255.0 -924.8 37.1
1248.0 -934.9 37.2
1231.9 -936.8 37.4
1192.9 -940.2 37.9
1184.9 -940.4 38.0
1165.9 -937.4 38.2
1142.0 -929.0 38.5
1142.0 -936.3 38.5
1137.9 -939.7 38.5
1111.0 -934.2 38.9
1102.9 -940.1 39.0
1094.9 -938.9 39.1
1080.0 -937.0 39.2
1079.9 -943.9 39.2
1055.9 -938.5 39.5
1059.8 -956.3 39.5
1063.8 -967.5 39.4
1059.7 -976.5 39.4
1059.6 -996.6 39.4
1059.6 -1003.4 39.4
1059.3 -1043.7 39.4
1063.2 -1068.8 39.3
748.1 446.2 40.8
760.0 442.0 40.6
1128.1 635.0 33.6
1136.1 633.0 33.4
1143.1 630.1 33.3
868.9 416.2 38.4
864.8 408.7 38.5
864.8 398.3 38.5
860.7 385.8 38.5
868.7 384.9 38.4
868.6 374.4 38.4
872.6 371.2 38.3
868.6 364.0 38.3
876.6 362.7 38.2
876.5 357.4 38.2
876.5 352.1 38.2
899.3 324.8 37.7
903.3 321.0 37.6
903.2 310.0 37.6
903.2 299.0 37.6
915.1 286.9 37.3
911.1 279.9 37.4
919.0 277.1 37.2
915.0 270.1 37.3
923.0 267.2 37.1
923.0 261.6 37.1
922.9 255.9 37.1
926.9 251.5 37.0
929.9 246.7 37.0
929.8 241.1 37.0
945.8 239.9 36.6
941.7 227.2 36.7
953.7 224.6 36.5
953.7 218.7 36.5
961.7 214.8 36.3
957.6 207.9 36.4
965.6 203.8 36.2
972.6 199.4 36.1
1109.6 208.8 33.4
1101.6 200.2 33.5
1105.5 194.0 33.4
1109.5 187.7 33.3
1101.4 172.3 33.5
1101.3 158.3 33.5
1113.2 145.9 33.2
1097.2 136.8 33.5
1101.1 130.3 33.4
1109.1 124.2 33.3
1105.1 116.8 33.3
1109.0 110.1 33.2
1101.0 102.4 33.4
1108.9 96.0 33.2
1112.9 89.3 33.1
1104.9 81.7 33.3
1096.8 74.2 33.4
1092.8 67.1 33.5
1544.7 -949.3 23.2
1231.8 -936.8 29.4
1231.8 -944.8 29.4
1200.8 -947.7 30.0
1184.8 -940.3 30.3
1176.8 -948.0 30.4
1145.9 -932.9 31.1
1141.8 -936.3 31.1
1137.8 -939.7 31.2
1110.9 -934.2 31.8
1106.8 -944.2 31.8
1090.9 -934.7 32.2
1079.8 -943.9 32.4
1067.8 -944.7 32.6
1063.8 -947.2 32.7
1063.7 -960.7 32.7
1059.7 -963.0 32.7
1055.7 -972.0 32.8
1059.5 -996.6 32.7
1063.4 -1008.0 32.6
1059.1 -1063.9 32.6
756.1 460.9 36.3
752.0 453.5 36.4
744.0 443.2 36.6
752.0 444.9 36.4
756.0 443.4 36.3
1124.0 632.4 26.5
1132.0 630.4 26.3
1136.0 625.7 26.2
864.8 413.9 33.3
860.7 406.5 33.4
856.7 399.1 33.5
860.7 396.1 33.4
860.6 385.8 33.4
864.6 382.8 33.3
868.5 374.4 33.1
872.5 371.2 33.0
868.5 364.0 33.1
876.5 362.7 32.9
880.5 359.3 32.8
880.4 354.0 32.8
884.4 345.2 32.7
876.3 331.0 32.9
887.3 330.5 32.6
895.2 323.1 32.3
899.2 319.3 32.2
915.1 292.5 31.7
903.0 282.6 32.1
919.0 282.7 31.6
919.0 277.1 31.6
914.9 270.2 31.7
922.9 267.2 31.5
922.9 261.6 31.5
918.8 254.7 31.6
922.8 250.3 31.5
926.8 245.9 31.4
926.7 240.2 31.4
926.7 234.5 31.3
933.7 230.8 31.2
941.7 227.2 30.9
953.6 218.7 30.6
953.6 212.8 30.6
961.5 208.9 30.4
965.5 203.8 30.2
972.5 199.4 30.0
1169.7 -941.2 23.0
1137.8 -932.3 23.9
1114.7 -938.2 24.5
1102.7 -940.1 24.9
1083.7 -941.2 25.4
1083.7 -948.1 25.4
752.0 457.9 32.1
1119.9 629.9 19.5
1127.9 627.9 19.2
852.7 407.1 28.5
856.7 404.2 28.4
856.6 399.1 28.4
856.6 394.0 28.4
856.5 383.7 28.3
864.5 382.8 28.1
864.5 372.4 28.1
872.4 371.2 27.8
864.4 362.0 28.0
868.4 358.8 27.9
876.4 357.4 27.6
876.3 352.1 27.6
884.3 345.2 27.3
876.2 331.0 27.6
891.2 332.2 27.1
899.1 319.3 26.8
903.1 310.0 26.6
903.0 299.0 26.6
910.9 285.4 26.3
914.9 281.3 26.2
910.9 274.4 26.3
910.8 268.8 26.3
914.8 264.6 26.1
914.8 259.0 26.1
914.7 253.4 26.1
918.7 249.1 26.0
918.7 243.5 26.0
922.6 233.4 25.8
933.6 230.8 25.4
929.6 224.0 25.6
941.5 221.4 25.1
945.5 216.7 25.0
949.5 211.8 24.9
953.4 207.0 24.7
953.4 201.1 24.7
1106.6 -944.2 17.7
1086.6 -944.4 18.4
743.9 443.3 28.1
743.8 439.0 28.1
755.9 443.5 27.6
852.5 396.9 23.4
852.5 391.8 23.4
856.4 378.6 23.2
860.4 375.5 23.0
864.4 372.4 22.9
868.4 369.2 22.7
864.3 362.0 22.9
868.3 358.8 22.7
876.3 357.4 22.3
880.3 354.0 22.2
887.2 346.6 21.9
876.1 331.0 22.3
903.1 332.0 21.2
899.0 308.4 21.3
902.9 299.0 21.1
902.9 288.1 21.1
906.8 284.0 20.9
906.8 278.5 20.9
914.8 275.7 20.6
910.7 268.8 20.7
914.7 259.0 20.6
918.7 254.7 20.4
922.6 250.3 20.2
922.6 244.7 20.2
926.5 234.5 20.0
933.5 230.8 19.7
926.5 223.2 20.0
937.4 220.4 19.5
953.4 218.7 18.9
945.4 210.9 19.2
755.8 443.5 23.2
856.5 399.1 18.1
860.4 396.2 17.9
856.3 378.6 18.1
864.3 377.6 17.7
868.3 374.4 17.5
872.3 371.2 17.3
864.2 362.0 17.7
864.2 356.8 17.7
864.2 351.6 17.6
876.2 352.1 17.1
876.1 346.8 17.0
880.1 343.4 16.8
891.1 343.0 16.3
884.1 334.5 16.6
884.0 329.2 16.6
907.0 328.1 15.5
899.0 319.3 15.9
898.9 313.9 15.9
910.9 307.6 15.2
902.8 299.0 15.6
910.8 296.6 15.2
906.8 289.5 15.4
914.8 286.9 15.0
914.7 281.3 15.0
910.7 274.4 15.2
910.7 268.8 15.2
