502.5 75.0 84.6
513.4 397.9 83.4
515.3 389.9 83.5
516.9 320.4 83.6
510.9 310.1 83.1
505.7 285.9 82.6
503.7 279.4 82.4
512.4 223.2 83.1
509.3 218.9 82.9
510.3 214.5 82.9
507.2 205.3 82.7
512.2 203.0 83.1
503.1 188.3 82.3
509.1 178.8 82.8
505.0 169.5 82.4
504.6 100.1 82.3
509.6 98.7 82.8
508.6 96.0 82.7
509.6 93.7 82.8
511.6 91.6 83.0
509.6 88.7 82.8
500.5 82.0 81.9
502.5 75.0 82.1
508.5 70.9 82.7
521.5 70.2 83.9
525.5 68.2 84.3
531.5 66.3 84.8
515.0 344.1 80.9
513.0 332.1 80.7
514.9 323.7 80.9
514.9 318.6 80.9
512.8 311.8 80.7
509.3 226.4 80.4
512.3 223.2 80.6
512.3 220.7 80.6
512.2 208.0 80.6
507.2 197.8 80.1
505.1 186.8 80.0
503.0 178.4 79.8
506.6 108.0 80.0
508.6 101.0 80.2
508.6 96.0 80.2
506.5 93.1 80.0
506.5 83.1 80.0
508.4 73.4 80.2
508.4 70.9 80.2
533.4 69.2 82.3
543.4 67.8 83.2
554.5 66.3 84.1
556.4 63.6 84.3
517.1 369.1 78.6
515.0 344.1 78.4
510.9 330.2 78.1
512.4 251.1 78.1
512.4 248.5 78.1
505.3 233.9 77.5
510.3 229.6 77.9
505.3 224.0 77.5
507.3 220.2 77.7
510.3 219.5 77.9
512.2 208.0 78.1
511.6 114.4 77.9
504.5 100.1 77.4
509.5 98.8 77.8
513.5 89.5 78.1
508.4 81.0 77.7
506.4 78.1 77.5
504.4 72.8 77.3
513.4 69.1 78.0
529.4 68.7 79.3
535.4 66.8 79.8
552.4 66.0 81.1
570.4 65.2 82.5
519.3 404.6 76.2
517.2 392.1 76.0
515.2 379.7 75.9
515.1 367.0 75.9
511.0 355.4 75.6
514.6 275.4 75.8
509.5 266.6 75.4
505.4 253.7 75.1
510.4 249.7 75.4
509.3 241.5 75.4
507.3 235.2 75.2
512.3 230.8 75.6
512.3 228.3 75.6
509.2 213.9 75.3
513.7 135.3 75.6
508.7 123.6 75.2
508.6 118.6 75.2
506.5 98.1 75.0
509.5 96.2 75.2
515.4 87.3 75.7
504.4 77.8 74.9
506.4 75.6 75.0
511.4 73.9 75.4
509.3 71.1 75.2
511.3 68.8 75.4
552.4 66.0 78.3
513.3 408.0 73.3
519.3 404.6 73.6
514.6 293.2 73.2
516.6 287.1 73.4
514.5 280.4 73.2
512.4 258.7 73.1
509.4 249.0 72.9
512.3 243.5 73.0
509.3 236.5 72.8
509.3 234.0 72.8
511.7 134.7 72.9
515.7 133.4 73.2
508.6 121.1 72.7
509.6 118.9 72.8
509.5 111.3 72.8
509.5 101.3 72.7
509.5 98.8 72.7
515.5 97.6 73.1
508.4 83.5 72.7
502.3 75.0 72.3
511.3 73.9 72.8
508.3 70.9 72.6
531.3 69.0 74.1
547.3 68.3 75.1
554.3 66.3 75.5
558.3 63.9 75.8
516.8 328.1 70.8
512.7 311.8 70.6
509.6 291.7 70.4
510.4 262.3 70.4
509.8 166.7 70.3
502.7 146.4 69.9
509.7 136.5 70.3
504.6 127.3 70.0
513.6 120.1 70.5
513.5 112.4 70.5
508.4 101.0 70.2
508.4 98.5 70.2
509.4 96.2 70.2
506.4 85.6 70.0
509.3 78.6 70.2
509.3 76.1 70.2
509.3 73.6 70.2
504.3 70.4 69.9
511.3 68.9 70.3
533.3 69.2 71.5
547.3 68.3 72.3
556.3 66.5 72.8
560.3 64.1 73.0
514.9 349.2 68.2
516.9 346.0 68.3
516.8 335.8 68.3
514.7 326.3 68.2
510.7 312.6 68.0
516.6 305.0 68.3
512.6 296.6 68.1
508.8 171.3 67.8
509.7 154.1 67.8
506.7 147.9 67.6
511.6 137.2 67.9
513.6 135.3 67.9
509.6 131.5 67.7
509.5 121.4 67.7
511.5 119.5 67.8
506.5 110.5 67.6
504.4 102.6 67.5
508.4 101.0 67.7
508.4 98.5 67.7
511.4 94.2 67.8
508.3 86.0 67.6
508.3 81.0 67.6
506.3 78.1 67.5
511.2 73.9 67.8
508.2 70.9 67.6
515.2 69.4 68.0
531.2 69.0 68.7
556.2 66.5 69.9
515.1 392.5 65.7
510.9 368.0 65.5
517.0 371.6 65.8
514.9 351.7 65.7
508.9 193.9 65.3
506.9 190.3 65.2
511.9 190.3 65.4
509.8 181.8 65.3
511.8 180.2 65.4
511.8 172.6 65.4
511.6 142.3 65.3
513.6 135.3 65.4
511.6 132.1 65.3
511.5 129.6 65.3
511.5 122.0 65.3
515.5 120.6 65.5
511.5 116.9 65.3
509.4 106.3 65.2
508.4 101.0 65.2
511.4 99.2 65.3
509.3 96.3 65.2
506.3 85.6 65.1
508.3 83.5 65.1
508.2 78.5 65.1
508.2 76.0 65.1
509.2 73.6 65.2
509.2 68.6 65.2
535.2 69.5 66.2
551.2 68.8 66.9
556.2 66.5 67.1
509.0 218.9 62.8
509.0 213.9 62.8
512.0 210.6 62.9
504.9 204.2 62.6
506.9 200.3 62.7
511.9 200.5 62.9
513.9 199.0 62.9
509.9 189.3 62.8
509.8 181.8 62.8
513.8 181.2 62.9
513.8 178.6 62.9
509.7 161.7 62.8
502.6 148.9 62.5
511.6 147.3 62.8
513.5 132.8 62.9
515.5 120.6 62.9
511.4 117.0 62.8
508.4 106.1 62.7
513.3 102.2 62.8
511.3 99.2 62.7
515.3 97.6 62.9
513.3 94.6 62.8
508.2 78.5 62.6
511.2 76.5 62.7
508.2 73.5 62.6
511.2 71.4 62.7
549.2 68.5 64.0
554.2 66.3 64.1
1048.4 -963.1 79.4
1037.4 -957.3 79.0
1009.4 -963.7 78.1
512.3 276.4 60.4
509.3 269.1 60.4
516.2 261.5 60.5
512.2 251.1 60.4
510.1 242.2 60.3
510.1 237.1 60.3
516.0 225.7 60.5
512.0 220.7 60.4
512.0 215.7 60.4
511.9 210.6 60.4
511.9 205.5 60.3
513.9 201.5 60.4
511.8 190.4 60.3
511.8 187.8 60.3
508.8 181.3 60.2
515.8 182.1 60.4
508.7 171.3 60.2
515.6 156.5 60.4
508.6 148.7 60.2
515.5 143.7 60.4
511.5 137.2 60.3
513.5 135.3 60.3
513.5 132.8 60.3
508.4 118.6 60.2
511.4 114.4 60.2
511.3 104.3 60.2
511.3 101.8 60.2
511.3 99.2 60.2
509.3 96.3 60.2
508.2 81.0 60.1
509.2 78.7 60.1
509.1 76.1 60.1
511.1 71.4 60.2
529.1 68.7 60.6
547.1 68.3 61.1
1464.9 -51.1 84.4
1464.8 -60.9 84.4
1471.8 -71.1 84.6
1464.7 -80.3 84.4
1464.7 -90.1 84.4
1464.6 -99.8 84.4
1464.5 -109.6 84.3
1464.5 -119.3 84.3
1456.4 -128.1 84.1
1463.7 -245.9 84.2
1463.6 -275.1 84.1
1455.3 -321.6 83.9
1463.2 -333.5 84.1
1470.2 -345.3 84.2
1470.1 -355.0 84.2
1470.0 -364.8 84.2
1470.0 -374.6 84.2
1469.9 -384.4 84.2
1469.9 -394.2 84.2
1469.8 -404.0 84.2
1469.7 -413.8 84.1
1462.6 -430.9 83.9
516.9 374.2 58.1
520.9 375.8 58.2
516.8 361.4 58.1
518.8 355.7 58.1
520.7 349.9 58.1
520.6 334.3 58.1
514.5 318.7 58.0
520.5 318.8 58.1
520.5 308.4 58.1
512.4 296.7 57.9
512.4 286.5 57.9
512.3 276.4 57.9
510.3 269.9 57.9
514.2 265.2 57.9
512.2 258.7 57.9
510.1 244.7 57.8
510.1 237.1 57.8
520.0 233.2 58.0
512.0 220.7 57.8
511.9 210.6 57.8
513.9 206.6 57.9
509.8 199.4 57.8
509.8 189.3 57.8
511.7 182.8 57.8
511.7 180.2 57.8
508.7 171.3 57.7
511.7 170.1 57.8
513.7 168.4 57.8
509.5 149.1 57.7
509.5 146.6 57.7
511.5 137.2 57.7
509.4 123.9 57.7
508.4 121.1 57.7
513.4 120.1 57.7
515.3 115.5 57.8
508.3 108.6 57.6
508.3 106.1 57.6
513.3 104.8 57.7
511.3 101.8 57.7
509.2 98.8 57.6
508.2 83.5 57.6
508.1 73.5 57.6
511.1 71.4 57.6
529.1 71.4 58.0
527.1 68.5 57.9
552.1 68.9 58.4
1464.8 -41.4 74.7
1464.7 -51.1 74.7
1464.7 -60.9 74.7
1464.6 -70.6 74.7
1464.6 -80.3 74.6
1464.5 -90.1 74.6
1464.4 -109.5 74.6
1463.4 -275.1 74.4
1463.2 -304.3 74.4
1470.1 -325.7 74.5
1463.1 -333.5 74.3
1469.9 -355.0 74.4
1462.9 -362.7 74.3
1462.8 -372.5 74.3
1469.8 -384.4 74.4
1462.7 -391.9 74.3
1469.7 -404.0 74.4
1469.6 -413.8 74.4
1232.4 -944.8 69.5
1224.3 -953.5 69.3
519.0 409.8 55.6
519.0 396.9 55.6
516.9 387.0 55.6
518.9 384.0 55.6
516.8 376.8 55.5
514.7 351.8 55.5
516.6 338.3 55.5
514.6 328.8 55.5
514.5 318.7 55.5
518.5 311.9 55.5
512.3 281.5 55.4
514.3 277.9 55.4
514.2 265.2 55.4
512.1 251.1 55.3
512.0 238.4 55.3
516.0 238.5 55.4
513.9 224.5 55.3
513.8 196.5 55.3
506.7 187.8 55.2
511.7 182.8 55.3
509.6 169.2 55.2
508.6 161.3 55.2
513.6 160.8 55.3
511.5 149.9 55.2
509.5 146.6 55.2
508.4 136.2 55.2
508.3 121.1 55.2
509.3 118.9 55.2
513.3 115.0 55.2
511.2 104.3 55.2
513.2 102.3 55.2
509.2 98.8 55.1
513.2 97.2 55.2
511.2 94.2 55.1
508.1 86.0 55.1
508.1 83.5 55.1
506.1 78.1 55.1
511.1 76.5 55.1
511.1 73.9 55.1
511.0 71.4 55.1
529.1 71.4 55.3
533.0 69.3 55.3
556.0 66.5 55.6
1464.7 -41.4 65.0
1464.6 -51.1 64.9
1464.5 -60.8 64.9
1464.5 -70.6 64.9
1463.3 -275.1 64.7
1463.1 -304.3 64.6
1463.0 -323.8 64.6
1462.9 -333.5 64.6
1469.9 -345.2 64.6
1462.8 -353.0 64.6
1469.7 -364.8 64.6
1469.7 -374.6 64.6
1469.6 -384.4 64.6
1462.6 -391.9 64.5
1469.5 -404.0 64.6
1469.5 -413.8 64.6
1469.4 -423.6 64.6
1224.2 -953.5 61.3
1209.2 -955.3 61.2
1123.1 -960.8 60.3
1095.1 -959.9 60.0
511.3 114.4 52.6
506.2 105.6 52.6
509.2 103.8 52.6
509.2 101.3 52.6
509.2 98.8 52.6
513.1 94.6 52.6
513.0 74.3 52.6
509.0 71.1 52.6
513.0 69.2 52.6
537.0 69.8 52.7
537.0 67.1 52.7
556.0 66.6 52.7
1464.5 -41.3 55.2
1464.4 -51.1 55.2
1464.4 -60.8 55.2
1463.1 -284.8 54.9
1463.0 -294.5 54.9
1469.9 -306.1 54.9
1462.7 -353.0 54.8
1462.6 -362.7 54.8
1462.6 -372.4 54.8
1469.5 -384.4 54.8
1462.4 -391.9 54.8
1477.4 -406.6 54.8
1469.3 -423.5 54.8
1224.1 -953.5 53.4
1119.1 -956.7 53.1
1099.0 -964.1 53.0
1068.1 -951.5 52.9
1045.0 -959.7 52.9
1033.1 -952.7 52.8
1009.0 -963.6 52.7
508.1 98.6 50.1
513.1 97.2 50.1
509.0 73.6 50.1
509.0 71.1 50.1
519.0 70.0 50.0
551.0 68.8 49.9
1464.4 -41.3 45.5
1462.8 -304.3 45.2
1462.5 -353.0 45.1
1462.5 -362.7 45.1
1462.4 -372.4 45.1
1469.3 -384.4 45.0
1462.3 -391.9 45.0
1462.2 -401.6 45.0
1469.1 -423.5 45.0
1044.9 -959.6 46.3
1036.9 -957.2 46.3
1004.9 -958.9 46.4
516.9 407.5 47.9
514.8 384.9 47.9
516.7 376.8 47.9
506.0 80.7 47.6
502.0 77.5 47.6
509.0 76.2 47.6
510.9 73.9 47.5
534.9 69.5 47.2
559.9 67.0 46.9
1469.5 -325.6 35.3
1462.5 -333.5 35.4
1469.4 -355.0 35.3
1462.3 -362.7 35.4
1462.3 -372.4 35.3
1469.2 -384.4 35.2
1462.2 -391.9 35.3
1469.1 -403.9 35.2
1469.0 -413.7 35.2
1462.0 -421.1 35.3
518.9 409.8 45.3
516.8 387.0 45.3
516.6 361.4 45.3
514.6 356.9 45.3
514.5 351.8 45.3
518.5 340.2 45.2
514.4 328.9 45.3
514.4 318.7 45.3
516.3 307.6 45.2
514.1 283.0 45.2
512.1 276.4 45.3
508.0 81.0 45.1
508.9 78.7 45.0
510.9 76.5 45.0
508.9 73.6 45.0
510.9 71.4 45.0
532.9 69.3 44.6
551.9 68.9 44.2
555.9 66.6 44.1
1464.2 -21.8 26.0
1462.5 -304.2 25.7
1462.2 -352.9 25.6
1469.2 -364.8 25.5
1462.1 -372.4 25.6
1462.1 -382.1 25.6
1469.0 -394.1 25.4
1468.9 -403.9 25.4
1461.9 -411.4 25.6
1461.8 -421.1 25.5
520.4 334.3 42.6
514.3 318.7 42.7
514.2 298.3 42.7
514.1 283.0 42.7
512.1 276.4 42.7
516.0 271.8 42.6
518.0 268.1 42.6
511.9 251.1 42.7
509.9 244.7 42.7
519.9 243.6 42.5
517.8 237.2 42.5
511.8 223.3 42.7
513.7 216.8 42.6
505.9 75.7 42.6
512.9 71.7 42.4
520.8 70.3 42.2
534.8 69.5 41.8
551.8 66.1 41.3
579.8 66.3 40.6
1464.2 -2.3 16.3
1464.1 -12.1 16.3
1464.0 -21.8 16.3
1464.0 -31.6 16.3
1454.5 -292.5 16.2
1462.4 -304.2 16.0
1462.1 -352.9 15.9
1454.1 -360.3 16.1
1462.0 -372.4 15.9
1468.9 -384.3 15.7
1468.8 -394.1 15.6
1468.8 -403.9 15.6
1461.7 -421.1 15.8
1118.6 -956.6 24.4
1094.6 -959.8 25.1
512.0 276.4 40.2
514.0 275.4 40.1
516.0 271.8 40.1
512.0 263.8 40.2
513.8 239.8 40.1
508.7 221.5 40.2
511.7 218.2 40.1
515.7 218.0 40.0
509.6 209.5 40.2
508.5 193.9 40.2
502.5 188.3 40.4
509.5 189.4 40.2
512.8 71.7 39.9
534.8 69.5 39.1
1086.6 -944.4 18.4
1063.6 -947.2 19.2
1040.6 -955.1 20.0
1032.6 -952.7 20.2
1004.6 -958.9 21.2
981.6 -950.3 22.0
518.8 409.8 37.6
520.7 399.1 37.5
518.7 389.2 37.6
513.8 239.8 37.5
515.8 238.5 37.5
509.6 217.1 37.7
513.6 216.8 37.5
506.6 207.8 37.8
506.5 187.9 37.8
513.5 188.8 37.5
511.4 180.3 37.5
511.4 170.1 37.5
512.8 71.7 37.3
518.8 70.0 37.1
563.7 67.5 35.2
516.7 394.7 35.1
514.6 384.9 35.2
518.6 378.9 35.0
514.4 359.4 35.1
514.4 356.9 35.1
514.4 351.8 35.1
522.3 336.2 34.7
508.6 221.5 35.2
517.6 221.7 34.8
509.4 181.8 35.1
511.4 180.3 35.0
502.3 163.7 35.4
511.3 162.5 35.0
534.7 69.5 33.7
518.3 340.2 32.3
512.2 332.1 32.7
514.2 328.9 32.6
518.1 311.9 32.3
520.1 308.4 32.2
514.0 298.3 32.5
514.0 293.2 32.5
511.5 200.5 32.5
515.4 192.4 32.3
508.2 161.3 32.6
506.2 153.0 32.7
509.2 149.1 32.6
511.2 147.4 32.4
514.1 308.5 30.0
514.0 298.3 30.0
510.0 290.0 30.2
509.9 280.0 30.2
509.4 189.4 30.1
511.3 182.8 30.0
511.3 172.7 29.9
500.2 162.8 30.7
511.2 162.6 29.9
508.2 153.8 30.1
509.1 146.6 30.0
506.1 138.0 30.2
516.6 407.5 27.4
520.6 399.1 27.1
516.5 387.0 27.4
514.4 372.2 27.5
508.9 279.2 27.8
509.8 274.9 27.7
513.8 270.3 27.4
515.8 266.7 27.2
517.7 260.4 27.1
513.7 252.5 27.4
508.2 161.3 27.6
513.2 160.8 27.3
511.1 155.0 27.4
511.1 149.9 27.4
515.1 143.7 27.1
511.0 137.2 27.4
515.0 136.1 27.1
518.3 355.7 24.6
520.2 349.9 24.5
509.7 262.4 25.2
513.5 232.1 24.8
509.1 154.2 25.0
513.0 137.9 24.7
513.0 135.4 24.7
515.0 133.5 24.5
508.9 126.5 25.0
