666.0 5.4 75.2
663.9 -2.0 75.1
651.9 -8.6 74.5
655.9 -12.4 74.7
651.8 -15.7 74.5
653.8 -19.5 74.6
649.8 -22.7 74.4
655.8 -26.9 74.6
651.8 -30.1 74.4
645.7 -33.0 74.1
641.7 -36.1 74.0
645.7 -40.1 74.1
641.7 -43.1 73.9
637.6 -49.5 73.7
633.6 -59.3 73.5
632.5 -66.0 73.5
630.5 -69.1 73.4
622.5 -70.8 73.0
628.5 -75.5 73.3
624.4 -78.0 73.1
626.4 -81.9 73.2
626.4 -85.3 73.2
620.4 -87.2 72.9
616.4 -89.6 72.7
624.3 -95.0 73.1
618.3 -100.1 72.8
614.3 -102.4 72.6
608.3 -107.2 72.3
608.2 -110.5 72.3
608.2 -113.7 72.3
602.2 -115.1 72.0
608.2 -120.3 72.3
598.1 -126.6 71.8
596.1 -129.1 71.7
598.1 -133.0 71.8
598.1 -136.2 71.8
594.1 -137.8 71.6
592.1 -140.2 71.5
594.0 -144.2 71.5
592.0 -146.5 71.4
592.0 -152.8 71.4
591.0 -155.5 71.4
582.9 -161.4 71.0
578.9 -162.6 70.8
580.9 -169.7 70.9
576.8 -173.9 70.7
578.8 -177.9 70.8
574.8 -178.9 70.6
570.8 -182.9 70.4
568.7 -193.8 70.3
566.7 -195.6 70.2
560.7 -201.1 69.9
560.6 -206.9 69.9
558.6 -208.6 69.8
554.6 -209.1 69.6
550.6 -209.5 69.4
556.6 -216.1 69.7
558.5 -223.1 69.8
554.5 -223.4 69.6
549.5 -228.7 69.3
552.5 -236.4 69.5
545.4 -237.2 69.1
547.4 -241.4 69.2
545.4 -242.8 69.1
539.4 -241.3 68.8
543.4 -247.0 69.0
543.4 -249.8 69.0
537.3 -259.1 68.7
533.3 -258.7 68.5
529.3 -258.2 68.3
529.3 -263.6 68.3
529.3 -266.3 68.3
527.3 -267.3 68.2
523.2 -269.3 68.0
527.2 -275.3 68.2
517.2 -272.1 67.7
523.2 -282.5 68.0
517.2 -279.9 67.7
517.2 -282.4 67.7
519.1 -289.4 67.8
517.1 -298.0 67.7
515.1 -298.7 67.6
515.0 -301.3 67.6
509.0 -300.6 67.3
513.0 -309.6 67.5
509.0 -313.3 67.3
506.0 -312.8 67.1
506.9 -316.3 67.2
503.9 -318.3 67.0
506.9 -323.9 67.2
501.9 -321.2 66.9
503.9 -325.7 67.0
495.9 -322.2 66.6
495.8 -341.6 66.6
491.8 -346.7 66.4
489.7 -351.6 66.3
491.7 -356.3 66.4
485.7 -356.3 66.1
489.6 -365.9 66.3
349.9 212.2 58.8
348.9 209.8 58.8
342.8 202.0 58.5
351.9 209.1 58.9
353.9 209.9 59.0
350.9 204.1 58.9
358.9 211.1 59.2
351.8 198.6 58.9
362.9 206.8 59.3
359.8 197.0 59.2
375.8 195.7 59.9
376.8 190.5 59.9
371.8 183.4 59.7
382.8 187.8 60.1
387.8 188.6 60.3
383.8 182.4 60.2
393.8 185.2 60.6
393.8 183.5 60.6
395.8 183.4 60.7
397.8 183.2 60.7
398.8 182.2 60.8
411.7 172.1 61.3
411.7 166.8 61.3
414.7 166.8 61.4
421.7 169.2 61.7
421.7 165.5 61.7
422.7 162.4 61.7
426.7 159.0 61.9
429.6 156.8 62.0
437.6 155.2 62.3
443.6 154.2 62.6
447.6 154.1 62.7
449.6 153.0 62.8
445.6 149.1 62.7
449.6 146.8 62.8
451.6 145.7 62.9
459.6 140.7 63.2
463.6 140.2 63.4
467.6 139.7 63.5
476.6 141.0 63.9
472.6 137.2 63.7
468.5 131.2 63.6
478.5 132.7 64.0
484.5 132.6 64.2
480.5 128.8 64.1
482.5 127.2 64.1
490.5 127.6 64.5
492.5 125.9 64.5
498.5 125.4 64.8
500.5 123.6 64.9
504.5 122.4 65.0
498.5 118.1 64.8
509.5 116.4 65.2
515.5 115.5 65.5
523.4 112.5 65.8
523.4 109.9 65.8
529.4 108.7 66.0
533.4 107.0 66.2
535.4 104.8 66.3
535.4 102.0 66.3
543.4 101.1 66.6
549.4 99.5 66.8
549.4 96.7 66.8
552.4 94.5 66.9
554.3 92.0 67.0
562.3 90.6 67.3
566.3 88.3 67.5
570.3 86.0 67.7
576.3 84.0 67.9
582.3 81.8 68.1
584.3 79.1 68.2
592.3 77.0 68.5
593.3 74.0 68.6
603.2 65.6 69.0
619.2 63.9 69.6
619.2 60.5 69.6
625.2 57.6 69.9
629.2 54.5 70.0
629.2 51.1 70.0
638.1 44.7 70.4
646.1 41.5 70.7
652.1 38.2 70.9
654.1 34.7 71.0
660.1 31.2 71.2
658.0 27.5 71.2
662.0 23.9 71.3
658.0 20.2 71.2
674.0 16.4 71.8
659.9 5.6 71.2
659.9 -1.8 71.2
659.9 -5.4 71.2
659.8 -9.1 71.2
661.8 -12.9 71.3
655.8 -16.1 71.0
649.8 -19.2 70.8
653.7 -23.1 70.9
655.7 -26.9 71.0
651.7 -30.1 70.8
649.7 -33.5 70.8
647.7 -36.8 70.7
647.6 -40.4 70.7
645.6 -43.7 70.6
637.6 -46.0 70.3
635.6 -49.2 70.2
635.5 -59.6 70.2
633.5 -62.8 70.1
632.5 -66.0 70.0
632.5 -69.5 70.0
628.4 -72.1 69.9
630.4 -75.9 69.9
622.4 -77.6 69.6
622.4 -81.0 69.6
626.4 -85.3 69.8
618.3 -86.7 69.4
622.3 -91.1 69.6
618.3 -93.4 69.4
614.2 -102.3 69.2
608.2 -103.9 69.0
610.2 -107.8 69.1
610.2 -111.1 69.1
604.1 -122.2 68.8
600.1 -124.1 68.7
602.1 -128.0 68.7
598.1 -129.8 68.6
594.1 -131.5 68.4
596.0 -138.6 68.5
591.0 -139.8 68.3
591.0 -143.0 68.3
591.0 -146.1 68.3
591.9 -152.8 68.3
584.9 -156.1 68.0
584.9 -162.3 68.0
584.9 -165.4 68.0
578.8 -165.7 67.7
574.8 -172.9 67.6
578.8 -177.9 67.7
570.8 -179.9 67.4
572.7 -183.9 67.5
570.7 -191.9 67.4
568.7 -196.7 67.3
558.7 -194.1 66.9
558.6 -199.9 66.9
564.6 -206.3 67.1
562.6 -208.1 67.0
560.6 -209.8 67.0
558.6 -211.5 66.9
556.5 -216.1 66.8
554.5 -220.6 66.7
556.5 -224.7 66.8
552.5 -225.0 66.6
549.5 -228.7 66.5
547.4 -233.0 66.4
541.4 -237.2 66.2
541.4 -242.7 66.1
539.4 -244.1 66.1
543.3 -249.8 66.2
539.3 -249.6 66.1
541.3 -253.8 66.1
537.3 -253.6 66.0
533.3 -258.7 65.8
535.2 -263.0 65.9
535.2 -268.4 65.9
527.2 -264.6 65.5
529.2 -277.0 65.6
521.1 -291.2 65.3
511.1 -289.8 64.9
509.0 -293.1 64.8
515.0 -301.3 65.0
511.0 -300.0 64.9
506.0 -302.8 64.6
504.0 -308.3 64.6
506.9 -313.8 64.7
503.9 -320.8 64.5
503.9 -323.3 64.5
506.8 -328.9 64.7
503.8 -335.7 64.5
497.8 -331.7 64.3
497.8 -334.1 64.3
497.8 -339.0 64.3
495.8 -341.6 64.2
495.7 -344.1 64.2
491.7 -341.9 64.0
491.7 -353.9 64.0
491.7 -356.3 64.0
485.7 -356.3 63.8
489.6 -365.9 63.9
342.9 215.8 57.3
339.9 211.1 57.2
342.9 210.8 57.3
356.9 205.0 57.7
357.8 201.9 57.8
359.8 201.1 57.8
359.8 195.6 57.8
361.8 194.7 57.9
369.8 194.8 58.2
371.8 195.2 58.2
367.8 190.2 58.1
374.8 194.8 58.3
369.8 189.0 58.2
382.8 195.6 58.6
378.8 189.2 58.5
379.8 186.9 58.5
399.8 184.6 59.1
399.7 181.3 59.1
400.7 175.2 59.2
406.7 177.6 59.4
398.7 170.5 59.1
402.7 171.5 59.2
410.7 175.0 59.5
408.7 170.2 59.4
409.7 169.0 59.5
413.7 166.2 59.6
417.6 163.2 59.7
423.7 164.8 59.9
425.7 164.1 60.0
427.6 161.4 60.0
431.6 161.7 60.2
431.6 157.9 60.2
433.6 155.1 60.2
437.6 155.2 60.4
443.6 152.2 60.6
459.6 149.3 61.1
453.5 142.4 60.9
459.5 142.9 61.1
470.6 143.1 61.4
472.5 137.2 61.5
472.5 135.0 61.5
470.5 132.0 61.4
478.5 132.7 61.7
476.5 129.7 61.6
484.5 130.2 61.9
484.5 127.9 61.9
492.5 128.3 62.2
498.5 127.9 62.3
500.5 126.1 62.4
502.5 121.8 62.5
506.4 120.5 62.6
515.4 115.5 62.9
523.4 112.5 63.2
523.4 109.9 63.2
535.4 107.5 63.5
537.4 105.2 63.6
537.4 102.5 63.6
539.3 100.2 63.7
549.3 99.5 64.0
551.3 97.1 64.1
551.3 94.3 64.1
562.3 93.5 64.4
564.3 90.9 64.5
568.3 88.7 64.6
570.3 86.0 64.7
574.3 83.7 64.8
584.3 82.1 65.1
584.2 79.1 65.1
590.2 76.8 65.3
592.2 73.9 65.4
599.2 71.6 65.6
607.2 66.0 65.9
619.2 63.9 66.3
615.2 60.2 66.1
629.2 58.0 66.6
634.1 51.4 66.8
633.1 47.9 66.7
640.1 44.8 66.9
648.1 41.6 67.2
650.0 38.1 67.3
656.0 34.7 67.5
660.0 31.2 67.6
656.0 27.5 67.5
660.0 23.8 67.6
670.0 20.2 67.9
665.9 12.8 67.8
665.9 9.1 67.8
667.9 5.3 67.8
657.8 2.0 67.5
663.8 -1.9 67.7
659.8 -5.4 67.5
651.8 -8.5 67.3
659.7 -16.4 67.5
655.7 -19.7 67.4
651.7 -22.9 67.3
651.6 -30.1 67.3
647.6 -33.2 67.1
647.6 -36.8 67.1
643.6 -39.9 67.0
643.6 -43.4 67.0
641.5 -46.6 66.9
637.5 -49.5 66.8
635.5 -52.7 66.7
628.5 -55.0 66.5
633.4 -62.7 66.6
633.4 -66.2 66.6
626.4 -71.7 66.4
626.4 -75.1 66.4
624.3 -78.0 66.3
626.3 -81.9 66.4
624.3 -84.8 66.3
624.3 -88.2 66.3
620.3 -90.6 66.1
624.2 -95.0 66.3
618.2 -96.8 66.1
616.2 -102.9 66.0
608.2 -103.9 65.7
610.2 -107.8 65.8
612.1 -111.7 65.9
610.1 -114.4 65.8
604.1 -115.7 65.6
608.1 -120.3 65.7
608.1 -123.5 65.7
600.0 -127.3 65.4
602.0 -131.2 65.5
598.0 -133.0 65.4
598.0 -139.4 65.4
597.9 -145.7 65.3
597.9 -148.9 65.3
593.9 -150.5 65.2
591.9 -152.8 65.1
590.9 -155.5 65.1
590.9 -158.7 65.1
590.8 -161.8 65.1
590.8 -165.0 65.1
578.8 -162.6 64.7
580.8 -166.6 64.8
580.8 -169.7 64.8
580.8 -172.7 64.8
576.8 -173.9 64.6
578.7 -177.9 64.7
570.7 -182.9 64.4
566.7 -183.8 64.3
568.7 -187.8 64.3
570.6 -191.9 64.4
564.6 -194.5 64.2
564.6 -197.5 64.2
556.6 -198.7 63.9
560.5 -206.9 64.0
558.5 -220.2 64.0
554.5 -220.5 63.8
556.4 -224.7 63.9
549.4 -223.0 63.7
545.4 -226.0 63.5
549.4 -237.2 63.6
543.3 -244.2 63.4
541.3 -245.5 63.4
543.3 -249.8 63.4
543.3 -252.6 63.4
539.3 -255.1 63.3
535.3 -254.8 63.2
529.3 -252.9 63.0
531.2 -257.1 63.0
535.2 -263.0 63.1
525.1 -273.6 62.8
519.1 -273.8 62.6
521.1 -283.4 62.7
521.0 -291.2 62.6
511.0 -289.8 62.3
513.0 -296.8 62.4
517.0 -303.2 62.5
512.9 -304.5 62.4
510.9 -305.1 62.3
505.9 -305.3 62.1
505.9 -310.3 62.1
505.9 -312.8 62.1
503.8 -323.2 62.0
503.8 -325.7 62.0
501.8 -328.6 62.0
499.8 -331.4 61.9
503.7 -345.7 62.0
495.7 -344.1 61.8
495.6 -353.8 61.7
491.6 -353.9 61.6
487.7 -351.6 61.5
489.6 -358.7 61.5
487.6 -358.7 61.5
342.9 215.8 56.0
345.9 215.5 56.1
343.9 212.0 56.1
346.9 214.1 56.1
347.9 212.6 56.2
350.9 213.3 56.2
351.9 209.1 56.3
356.8 205.0 56.4
358.8 205.6 56.4
357.8 201.9 56.4
360.8 200.7 56.5
364.8 201.7 56.6
361.8 194.7 56.5
378.8 190.7 56.9
378.7 189.2 56.9
379.7 188.5 57.0
381.7 188.6 57.0
385.7 187.1 57.1
384.7 184.7 57.1
392.8 189.3 57.3
394.8 189.2 57.3
394.7 184.3 57.3
399.7 177.9 57.4
399.7 176.2 57.4
400.7 171.8 57.5
406.7 174.1 57.6
411.7 175.6 57.8
411.7 172.1 57.7
410.6 169.7 57.7
416.7 171.6 57.9
414.6 168.6 57.8
416.6 162.6 57.9
431.6 157.9 58.2
435.6 158.0 58.3
439.6 156.2 58.4
443.6 156.2 58.5
445.6 155.2 58.6
445.6 151.1 58.6
445.5 149.1 58.6
461.5 145.9 59.0
457.5 139.9 58.9
470.5 143.1 59.2
468.5 137.9 59.2
474.5 135.7 59.3
480.5 131.1 59.5
480.4 128.8 59.5
492.4 128.3 59.8
486.4 123.9 59.6
498.4 125.4 59.9
504.4 119.9 60.1
508.4 118.6 60.2
508.4 116.1 60.2
517.4 116.1 60.4
519.4 114.0 60.4
521.4 112.0 60.5
521.4 109.4 60.5
525.3 107.7 60.6
537.4 108.0 60.9
535.3 104.8 60.8
537.3 102.5 60.9
545.3 101.5 61.1
541.3 97.9 61.0
549.3 96.7 61.2
551.3 94.3 61.2
558.3 92.7 61.4
562.3 90.6 61.5
564.2 88.0 61.6
570.2 86.0 61.7
576.2 84.0 61.9
584.2 82.1 62.1
586.2 79.3 62.1
592.2 73.9 62.3
599.2 71.6 62.4
603.2 68.8 62.5
607.1 66.0 62.6
615.1 63.5 62.8
617.1 60.3 62.9
625.1 57.6 63.1
631.1 54.7 63.2
634.1 51.4 63.3
633.0 47.9 63.3
644.0 45.0 63.5
646.0 41.6 63.6
646.0 38.0 63.6
662.0 31.2 64.0
653.9 27.4 63.8
661.9 23.9 64.0
657.9 20.2 63.9
671.9 16.4 64.2
667.9 12.7 64.1
669.8 9.0 64.2
667.8 5.3 64.1
661.8 1.8 64.0
659.8 -1.7 63.9
657.7 -5.3 63.8
653.7 -8.7 63.7
651.7 -15.7 63.7
655.7 -19.7 63.8
649.6 -22.7 63.6
653.6 -26.7 63.7
649.6 -37.1 63.6
645.5 -40.1 63.5
647.5 -43.9 63.5
643.5 -46.9 63.4
637.5 -49.5 63.3
635.5 -52.7 63.2
632.4 -55.7 63.1
633.4 -59.3 63.2
633.4 -62.7 63.2
632.4 -66.0 63.1
630.4 -69.1 63.1
630.3 -72.5 63.1
632.3 -76.4 63.1
630.3 -79.4 63.1
626.3 -81.9 63.0
626.3 -85.3 62.9
626.2 -88.7 62.9
620.2 -90.6 62.8
624.2 -95.0 62.9
624.2 -98.4 62.9
618.1 -103.5 62.7
612.1 -105.1 62.6
612.1 -108.4 62.6
614.1 -112.3 62.6
610.1 -114.4 62.5
612.1 -118.3 62.5
606.0 -119.6 62.4
602.0 -121.5 62.3
604.0 -125.4 62.3
600.0 -127.3 62.2
600.0 -130.5 62.2
599.9 -136.9 62.2
595.9 -141.8 62.1
593.9 -144.2 62.1
593.9 -147.3 62.1
590.9 -149.2 62.0
591.8 -152.8 62.0
584.8 -153.0 61.8
590.8 -158.7 62.0
586.8 -160.0 61.9
582.8 -161.4 61.8
584.8 -165.4 61.8
576.8 -164.7 61.6
584.7 -171.6 61.8
580.7 -172.7 61.7
578.7 -174.8 61.6
578.7 -177.9 61.6
570.7 -179.9 61.4
572.6 -183.9 61.5
568.6 -184.8 61.4
570.6 -188.9 61.4
572.6 -192.9 61.5
566.6 -192.7 61.3
568.6 -196.7 61.3
560.6 -195.2 61.1
562.6 -199.3 61.2
562.5 -202.2 61.2
560.5 -204.0 61.1
564.5 -209.3 61.2
560.5 -209.8 61.1
552.5 -207.8 60.9
558.5 -214.4 61.1
556.4 -221.8 61.0
556.4 -224.7 61.0
549.4 -223.0 60.8
549.4 -225.9 60.8
549.3 -234.3 60.8
545.3 -234.4 60.7
543.3 -235.8 60.7
543.3 -241.4 60.7
543.3 -244.2 60.6
543.3 -247.0 60.6
537.3 -248.1 60.5
541.2 -256.6 60.6
537.2 -256.3 60.5
531.2 -254.4 60.3
531.2 -259.8 60.3
533.1 -266.8 60.4
529.1 -266.3 60.3
531.1 -270.6 60.3
527.1 -275.3 60.2
521.0 -283.4 60.0
521.0 -291.2 60.0
519.0 -294.6 60.0
519.0 -297.2 60.0
514.9 -301.3 59.9
516.9 -308.3 59.9
506.9 -303.7 59.7
505.9 -307.8 59.6
505.8 -315.3 59.6
506.8 -323.9 59.6
503.8 -323.2 59.6
506.8 -328.9 59.6
501.8 -328.6 59.5
493.7 -341.8 59.3
487.7 -342.1 59.1
493.6 -351.5 59.3
485.6 -353.9 59.1
487.6 -358.7 59.1
352.8 206.2 55.0
355.8 206.7 55.0
356.8 205.0 55.0
359.8 206.6 55.1
362.8 208.3 55.1
357.8 201.9 55.0
361.8 197.5 55.1
365.8 195.6 55.2
367.8 195.9 55.2
372.8 197.5 55.3
369.7 193.4 55.2
369.7 191.9 55.2
371.7 190.8 55.3
372.7 188.7 55.3
380.7 190.8 55.4
378.7 184.6 55.4
390.7 187.8 55.6
393.7 183.5 55.7
397.7 184.9 55.7
389.7 177.4 55.6
392.7 177.9 55.6
394.7 176.1 55.7
413.7 176.9 56.0
411.6 172.1 56.0
413.6 171.6 56.0
413.6 169.8 56.0
413.6 168.0 56.0
416.6 168.0 56.1
416.6 166.2 56.1
419.6 166.2 56.1
421.6 161.8 56.1
426.6 160.9 56.2
429.6 160.6 56.3
437.6 163.0 56.4
437.5 153.2 56.4
439.5 150.2 56.5
447.5 148.0 56.6
451.5 145.7 56.7
455.5 145.4 56.7
457.5 142.0 56.8
455.5 139.0 56.7
459.5 138.6 56.8
474.5 138.0 57.1
476.5 136.5 57.1
478.4 132.7 57.1
486.4 128.6 57.3
492.4 128.3 57.4
490.4 125.2 57.3
496.4 124.8 57.4
502.4 124.3 57.6
496.4 120.0 57.4
509.4 118.9 57.7
511.3 114.4 57.7
521.3 114.6 57.9
525.3 113.0 58.0
527.3 108.2 58.0
529.3 106.1 58.0
535.3 102.1 58.1
549.3 99.5 58.4
551.3 97.1 58.4
558.2 92.8 58.5
562.2 90.6 58.6
562.2 87.7 58.6
572.2 86.4 58.8
576.2 84.0 58.8
586.2 79.3 59.0
590.1 76.8 59.1
588.1 73.4 59.0
601.1 71.8 59.3
599.1 68.4 59.2
621.0 57.3 59.6
634.0 48.0 59.8
642.0 44.9 60.0
646.0 41.6 60.0
645.9 38.0 60.0
653.9 34.7 60.2
655.9 31.1 60.2
663.8 20.2 60.3
669.8 16.4 60.4
667.8 9.0 60.4
665.8 5.4 60.4
659.7 1.9 60.2
659.7 -1.7 60.2
669.7 -6.0 60.4
659.7 -9.0 60.2
659.6 -12.7 60.2
653.6 -15.9 60.1
653.6 -19.5 60.1
657.6 -23.5 60.2
647.5 -29.7 60.0
651.5 -33.7 60.1
647.5 -36.8 60.0
645.5 -40.1 59.9
645.5 -43.7 59.9
639.4 -46.3 59.8
637.4 -49.5 59.8
632.4 -55.6 59.7
637.4 -60.0 59.8
633.3 -62.7 59.7
626.3 -68.3 59.6
620.3 -70.4 59.5
628.3 -75.5 59.6
624.2 -78.0 59.5
622.2 -81.0 59.5
622.2 -84.3 59.5
622.2 -87.7 59.5
622.1 -97.8 59.5
622.1 -101.2 59.4
614.1 -102.3 59.3
608.1 -103.9 59.2
610.1 -107.8 59.2
610.0 -111.1 59.2
612.0 -115.0 59.3
610.0 -117.6 59.2
614.0 -122.2 59.3
608.0 -126.8 59.2
598.0 -126.6 59.0
597.9 -133.0 59.0
595.9 -135.4 58.9
595.9 -141.8 58.9
597.8 -145.7 59.0
590.8 -146.1 58.8
593.8 -150.5 58.9
590.8 -152.4 58.8
590.8 -155.5 58.8
586.8 -156.9 58.7
590.7 -161.8 58.8
584.7 -165.4 58.7
590.7 -171.2 58.8
580.7 -169.7 58.6
580.7 -172.7 58.6
578.7 -174.8 58.6
576.6 -176.9 58.5
576.6 -179.9 58.5
574.6 -181.9 58.5
572.6 -183.9 58.5
570.6 -185.9 58.4
572.6 -189.9 58.5
566.6 -189.7 58.3
572.5 -196.0 58.4
572.5 -199.0 58.4
560.5 -195.2 58.2
558.5 -202.8 58.2
558.5 -205.7 58.2
562.4 -211.0 58.2
556.4 -210.3 58.1
552.4 -210.7 58.1
554.4 -214.8 58.1
558.4 -220.2 58.2
552.4 -219.3 58.1
556.4 -224.7 58.1
549.3 -231.5 58.0
549.3 -234.3 58.0
550.3 -240.7 58.0
547.3 -241.4 57.9
541.2 -245.5 57.8
543.2 -249.8 57.9
537.2 -253.6 57.7
541.1 -259.4 57.8
535.2 -257.5 57.7
535.1 -260.2 57.7
531.1 -262.5 57.6
531.1 -265.2 57.6
531.1 -267.9 57.6
525.1 -265.7 57.5
527.1 -272.6 57.5
525.1 -273.6 57.5
523.0 -277.2 57.5
521.0 -278.1 57.4
521.0 -280.7 57.4
525.0 -286.9 57.5
515.0 -285.8 57.3
510.9 -294.9 57.2
514.9 -301.3 57.3
508.9 -305.7 57.2
510.8 -310.2 57.2
508.8 -315.8 57.2
508.8 -318.4 57.2
505.8 -317.8 57.1
508.7 -328.5 57.1
503.7 -325.7 57.1
501.7 -328.6 57.0
499.7 -331.4 57.0
495.7 -329.5 56.9
497.7 -334.1 56.9
497.7 -336.5 56.9
499.6 -341.2 57.0
495.6 -344.1 56.9
493.6 -349.0 56.8
493.6 -351.5 56.8
483.5 -358.5 56.7
342.9 215.8 53.5
343.8 212.0 53.5
346.8 214.1 53.6
347.8 204.9 53.6
347.8 203.6 53.6
348.8 200.7 53.6
354.8 205.6 53.6
357.8 206.0 53.7
361.8 208.7 53.7
359.7 190.1 53.7
388.7 181.4 54.0
399.7 188.0 54.1
396.7 180.8 54.1
400.7 182.0 54.1
399.6 177.9 54.1
397.6 169.8 54.1
409.6 174.3 54.2
413.6 169.8 54.2
414.6 166.8 54.2
421.6 169.2 54.3
419.6 166.2 54.3
418.6 163.8 54.3
418.6 161.9 54.3
422.6 162.4 54.3
422.5 160.5 54.3
427.6 161.4 54.4
425.5 158.4 54.3
429.5 158.7 54.4
433.5 155.1 54.4
439.5 156.2 54.5
443.5 156.2 54.5
441.5 151.2 54.5
445.5 151.1 54.5
447.5 150.0 54.5
451.5 149.8 54.6
455.5 147.5 54.6
455.5 145.4 54.6
455.5 143.3 54.6
455.4 141.2 54.6
465.5 143.2 54.7
467.4 141.9 54.7
468.4 135.7 54.7
474.4 135.8 54.8
476.4 134.2 54.8
482.4 131.9 54.9
486.4 128.6 54.9
492.4 128.3 55.0
502.4 129.2 55.1
502.4 124.3 55.1
500.3 121.2 55.1
508.3 121.1 55.2
513.3 120.1 55.2
508.3 116.1 55.1
513.3 115.0 55.2
517.3 113.5 55.2
521.3 112.0 55.3
525.3 110.4 55.3
525.3 107.7 55.3
533.3 107.0 55.4
531.2 103.9 55.4
533.2 101.6 55.4
551.2 100.0 55.6
547.2 96.3 55.5
549.2 93.9 55.5
556.2 92.4 55.6
572.2 86.4 55.8
570.1 83.1 55.8
582.1 81.9 55.9
586.1 79.3 55.9
590.1 76.8 56.0
593.1 74.0 56.0
601.1 71.8 56.1
603.1 68.8 56.1
609.0 62.9 56.1
613.0 60.0 56.2
625.0 57.7 56.3
625.0 54.3 56.3
633.0 51.4 56.4
637.9 48.2 56.4
645.9 45.1 56.5
651.9 41.8 56.6
657.9 34.8 56.6
655.8 31.1 56.6
665.8 27.6 56.7
663.8 23.9 56.7
667.8 20.2 56.7
675.8 16.4 56.8
673.7 12.6 56.8
673.7 5.1 56.7
665.7 1.7 56.7
667.7 -2.1 56.7
665.6 -5.7 56.6
655.6 -8.8 56.5
655.6 -16.0 56.5
657.5 -19.8 56.5
651.5 -22.9 56.5
645.5 -25.9 56.4
649.5 -33.5 56.4
649.4 -37.0 56.4
643.4 -39.8 56.4
647.4 -43.9 56.4
639.4 -46.3 56.3
639.4 -49.8 56.3
639.3 -53.3 56.3
633.3 -55.8 56.2
630.3 -62.2 56.2
630.3 -65.6 56.2
630.3 -69.1 56.2
624.2 -74.6 56.1
620.2 -77.1 56.1
624.2 -81.4 56.1
630.2 -86.2 56.2
624.1 -88.2 56.1
624.1 -91.6 56.1
622.1 -94.5 56.1
622.1 -97.8 56.1
624.1 -101.8 56.1
616.0 -102.9 56.0
610.0 -107.8 55.9
608.0 -113.7 55.9
604.0 -115.7 55.9
605.9 -122.9 55.9
603.9 -128.7 55.8
599.9 -130.5 55.8
597.9 -132.9 55.8
597.8 -136.1 55.8
593.8 -137.8 55.7
591.8 -140.2 55.7
593.8 -144.1 55.7
590.8 -146.1 55.7
590.7 -152.4 55.7
591.7 -156.0 55.7
586.7 -156.9 55.6
586.7 -160.0 55.6
580.7 -163.5 55.6
586.6 -169.4 55.6
580.6 -169.7 55.6
580.6 -172.7 55.6
570.6 -173.9 55.4
574.6 -181.9 55.5
570.6 -182.9 55.4
572.5 -186.9 55.5
564.5 -185.7 55.4
572.5 -195.9 55.4
562.5 -193.4 55.3
562.5 -199.3 55.3
558.4 -202.8 55.3
560.4 -206.9 55.3
558.4 -208.6 55.3
558.4 -211.5 55.3
558.4 -214.4 55.3
562.3 -219.8 55.3
556.3 -218.9 55.2
556.3 -221.8 55.2
550.3 -220.8 55.2
549.3 -225.8 55.2
550.3 -232.2 55.2
547.2 -244.2 55.1
545.2 -245.6 55.1
539.2 -246.8 55.0
535.1 -252.0 55.0
535.1 -254.8 55.0
533.1 -255.9 55.0
533.1 -258.7 55.0
531.1 -259.8 54.9
531.1 -262.5 54.9
533.1 -266.8 54.9
531.1 -267.9 54.9
527.0 -272.6 54.9
523.0 -277.2 54.8
522.9 -285.1 54.8
518.9 -292.0 54.8
514.9 -293.5 54.7
514.9 -301.3 54.7
512.8 -304.5 54.7
512.8 -309.6 54.7
503.7 -323.2 54.6
505.7 -327.8 54.6
501.7 -328.6 54.5
501.6 -336.0 54.5
495.7 -331.9 54.5
495.6 -334.3 54.5
493.6 -341.8 54.4
491.6 -349.1 54.4
495.5 -356.2 54.4
489.5 -353.9 54.4
487.5 -356.3 54.4
487.5 -363.4 54.3
342.8 215.8 52.3
346.8 216.7 52.3
345.8 213.0 52.3
348.8 208.5 52.3
351.8 206.5 52.3
352.8 206.2 52.3
354.8 205.6 52.3
354.8 201.6 52.3
363.7 196.5 52.3
363.7 195.1 52.3
366.7 196.5 52.3
365.7 189.8 52.3
370.7 189.9 52.3
370.7 185.5 52.3
379.6 183.9 52.3
385.7 187.1 52.4
388.7 184.6 52.4
393.7 186.8 52.4
394.6 182.6 52.4
395.6 176.8 52.4
395.6 173.5 52.4
401.6 174.2 52.4
404.6 172.8 52.4
408.6 173.7 52.4
410.6 173.2 52.4
404.5 165.9 52.4
409.5 165.5 52.4
415.6 167.4 52.4
419.6 166.2 52.4
420.5 164.9 52.4
423.5 163.0 52.4
424.5 161.7 52.4
429.5 162.6 52.5
427.5 159.5 52.5
431.5 159.8 52.5
433.5 158.9 52.5
435.5 158.1 52.5
437.5 153.2 52.5
443.5 152.2 52.5
449.5 153.0 52.5
449.5 151.0 52.5
449.5 148.9 52.5
451.4 145.7 52.5
457.4 144.1 52.5
455.4 141.2 52.5
463.4 142.4 52.5
467.4 133.1 52.5
478.4 135.0 52.6
484.4 134.9 52.6
488.3 129.3 52.6
488.3 127.0 52.6
500.3 123.6 52.6
500.3 121.2 52.6
508.3 121.1 52.6
504.3 117.5 52.6
511.3 114.4 52.6
521.3 114.6 52.7
517.2 110.9 52.7
535.2 102.1 52.7
552.2 100.2 52.7
566.1 88.3 52.8
578.1 84.3 52.8
582.1 81.9 52.8
590.0 73.7 52.8
603.0 68.8 52.9
611.0 66.4 52.9
609.0 62.9 52.9
611.0 59.8 52.9
620.9 57.3 52.9
626.9 54.4 52.9
628.9 51.1 52.9
637.9 48.2 52.9
645.9 45.1 52.9
647.9 41.7 53.0
645.8 38.0 52.9
647.8 34.5 52.9
661.8 31.2 53.0
663.8 27.6 53.0
663.8 23.9 53.0
663.7 20.2 53.0
673.7 16.4 53.0
671.7 12.7 53.0
669.7 9.0 53.0
667.6 5.3 53.0
661.6 1.8 52.9
667.6 -2.1 53.0
667.6 -5.8 52.9
663.6 -9.3 52.9
655.5 -16.0 52.9
653.5 -19.5 52.9
657.5 -23.5 52.9
649.5 -26.3 52.9
649.4 -29.9 52.9
649.4 -33.5 52.9
645.4 -36.5 52.8
645.4 -40.1 52.8
647.4 -43.9 52.8
645.3 -47.2 52.8
641.3 -50.1 52.8
637.3 -53.0 52.8
633.3 -55.8 52.8
628.2 -61.8 52.8
630.2 -65.6 52.8
630.2 -69.0 52.8
628.2 -72.1 52.8
630.2 -75.9 52.8
620.2 -77.1 52.7
626.1 -81.9 52.7
628.1 -85.8 52.7
622.1 -87.7 52.7
618.1 -90.1 52.7
620.1 -93.9 52.7
618.0 -96.8 52.7
612.0 -98.5 52.7
610.0 -101.2 52.7
614.0 -105.6 52.7
609.9 -111.1 52.6
609.9 -114.3 52.6
601.9 -115.1 52.6
607.9 -123.5 52.6
607.9 -126.8 52.6
603.8 -128.7 52.6
599.8 -130.5 52.6
595.8 -132.2 52.6
597.8 -136.1 52.6
595.8 -141.8 52.6
597.7 -145.7 52.6
590.7 -146.1 52.6
590.7 -149.2 52.5
591.7 -155.9 52.5
586.7 -156.9 52.5
590.6 -161.8 52.5
582.6 -161.4 52.5
588.6 -167.2 52.5
578.6 -165.7 52.5
578.6 -168.7 52.5
576.6 -170.8 52.5
576.6 -173.8 52.5
578.6 -177.9 52.5
570.5 -179.9 52.4
570.5 -182.9 52.4
572.5 -186.9 52.4
570.5 -188.9 52.4
568.5 -190.8 52.4
572.4 -195.9 52.4
560.4 -195.2 52.4
558.4 -197.0 52.4
560.4 -201.0 52.4
560.4 -204.0 52.4
562.4 -211.0 52.4
560.3 -212.7 52.4
554.3 -211.9 52.4
560.3 -218.5 52.4
562.3 -222.7 52.4
556.3 -221.8 52.4
554.3 -223.4 52.3
552.3 -225.0 52.3
552.3 -227.8 52.3
550.2 -235.0 52.3
543.2 -233.0 52.3
549.2 -242.8 52.3
543.2 -244.2 52.3
535.1 -249.3 52.3
537.1 -253.6 52.3
539.1 -257.8 52.3
531.1 -254.4 52.2
535.1 -260.2 52.2
529.1 -258.2 52.2
531.0 -262.5 52.2
527.0 -264.6 52.2
531.0 -273.3 52.2
529.0 -274.3 52.2
525.0 -273.6 52.2
527.0 -278.0 52.2
524.9 -278.9 52.2
520.9 -278.1 52.2
518.9 -281.6 52.2
518.9 -289.4 52.2
522.8 -295.7 52.2
518.8 -305.0 52.1
508.8 -300.6 52.1
508.8 -303.2 52.1
508.8 -305.7 52.1
514.7 -314.1 52.1
512.7 -317.3 52.1
505.7 -312.8 52.1
505.7 -317.8 52.1
503.7 -318.2 52.1
503.7 -325.7 52.1
503.6 -330.7 52.1
491.5 -349.1 52.0
487.5 -351.6 52.0
485.5 -353.9 52.0
487.5 -358.7 52.0
487.4 -363.4 52.0
345.7 198.9 51.0
437.5 159.1 50.5
457.4 146.3 50.4
465.4 143.2 50.4
470.4 140.9 50.3
467.4 137.5 50.3
468.3 135.7 50.3
470.3 134.2 50.3
482.3 134.2 50.3
482.3 129.6 50.3
492.3 130.7 50.2
488.3 127.0 50.2
496.3 127.2 50.2
498.3 123.0 50.2
506.3 123.0 50.1
504.3 119.9 50.2
513.3 120.1 50.1
515.2 118.1 50.1
509.2 113.9 50.1
515.2 113.0 50.1
519.2 111.5 50.1
527.2 110.9 50.0
537.2 108.0 50.0
537.2 105.2 50.0
543.2 103.9 50.0
541.1 100.6 50.0
549.1 99.6 49.9
551.1 97.1 49.9
554.1 94.9 49.9
560.1 93.1 49.9
560.1 87.3 49.9
570.1 86.1 49.8
572.0 83.4 49.8
582.0 81.9 49.7
588.0 79.6 49.7
592.0 77.1 49.7
595.0 74.3 49.7
599.0 71.6 49.7
599.0 68.4 49.6
608.9 66.2 49.6
614.9 63.5 49.6
612.9 60.0 49.6
624.9 54.3 49.5
635.9 51.6 49.5
637.8 48.2 49.4
643.8 45.0 49.4
643.8 41.5 49.4
649.8 38.2 49.4
649.8 34.6 49.4
655.7 31.1 49.3
659.7 27.5 49.3
657.7 23.9 49.3
669.7 20.2 49.3
671.7 16.4 49.2
669.6 12.7 49.2
671.6 8.9 49.2
667.6 5.3 49.2
659.6 1.9 49.3
669.5 -2.2 49.2
665.5 -5.7 49.2
657.5 -8.9 49.3
661.5 -12.8 49.3
657.5 -16.2 49.3
657.4 -19.8 49.3
649.4 -22.7 49.3
653.4 -26.7 49.3
645.4 -33.0 49.3
649.3 -37.0 49.3
647.3 -40.4 49.3
649.3 -44.2 49.3
641.3 -46.6 49.3
637.3 -49.5 49.3
639.2 -53.3 49.3
635.2 -56.1 49.3
633.2 -59.3 49.3
628.2 -68.6 49.3
624.1 -71.2 49.3
630.1 -75.9 49.3
624.1 -78.0 49.3
626.1 -81.9 49.3
624.1 -84.8 49.3
624.0 -88.2 49.3
620.0 -90.6 49.3
622.0 -94.5 49.3
620.0 -97.3 49.3
620.0 -100.7 49.3
613.9 -105.6 49.4
609.9 -107.8 49.4
605.9 -109.8 49.4
605.9 -113.1 49.4
613.9 -118.9 49.3
605.9 -119.6 49.4
605.8 -122.8 49.4
603.8 -125.4 49.4
607.8 -130.1 49.3
599.8 -130.5 49.4
597.8 -132.9 49.4
593.8 -134.6 49.4
595.7 -138.6 49.4
593.7 -141.0 49.4
595.7 -144.9 49.4
590.7 -146.1 49.4
595.6 -154.5 49.4
588.6 -157.8 49.4
584.6 -159.1 49.4
586.6 -166.3 49.4
580.6 -166.6 49.4
576.6 -167.8 49.4
582.5 -176.8 49.4
574.5 -175.9 49.4
578.5 -180.9 49.4
572.5 -180.9 49.4
572.5 -186.9 49.4
572.4 -189.9 49.4
570.4 -191.9 49.4
566.4 -195.6 49.5
562.4 -199.3 49.5
558.4 -202.8 49.5
564.3 -209.2 49.4
564.3 -212.2 49.4
552.3 -210.7 49.5
560.3 -218.5 49.5
556.2 -224.7 49.5
554.2 -226.3 49.5
549.2 -225.8 49.5
547.2 -230.1 49.5
545.1 -240.0 49.5
545.1 -248.4 49.5
541.1 -248.3 49.5
535.1 -249.3 49.5
539.0 -255.1 49.5
539.0 -257.8 49.5
531.1 -254.4 49.5
532.9 -274.9 49.5
526.9 -272.6 49.5
524.9 -276.3 49.5
518.9 -276.4 49.6
520.9 -283.3 49.6
520.8 -291.2 49.5
522.8 -295.7 49.5
514.8 -293.5 49.6
516.8 -303.1 49.5
512.7 -307.0 49.6
510.7 -307.6 49.6
512.7 -312.2 49.6
506.7 -313.8 49.6
506.7 -316.3 49.6
506.7 -318.8 49.6
506.6 -326.4 49.6
505.6 -327.8 49.6
501.6 -328.6 49.6
499.6 -333.8 49.6
497.6 -336.5 49.6
499.5 -348.6 49.6
491.5 -349.1 49.6
485.5 -349.2 49.6
489.4 -358.7 49.6
487.4 -358.7 49.6
487.4 -363.4 49.6
342.8 215.8 49.8
340.7 207.3 49.8
342.8 208.3 49.8
345.7 207.8 49.7
349.8 210.9 49.7
347.7 204.9 49.7
350.7 205.5 49.7
350.7 200.2 49.7
355.7 202.6 49.6
357.7 196.4 49.6
360.7 196.5 49.5
366.7 197.9 49.5
366.7 195.0 49.5
365.6 189.9 49.5
369.7 191.9 49.4
372.7 191.6 49.4
372.6 188.7 49.4
377.6 188.4 49.3
386.6 187.9 49.2
384.6 183.1 49.2
389.6 182.2 49.2
392.6 182.8 49.1
393.6 175.4 49.1
399.6 177.9 49.0
403.5 173.8 49.0
407.5 174.8 48.9
409.5 172.6 48.9
408.5 166.7 48.9
412.5 167.4 48.9
417.5 168.6 48.8
411.5 163.2 48.9
418.5 165.6 48.8
423.5 166.7 48.7
419.5 162.5 48.8
423.5 163.0 48.7
425.5 162.2 48.7
426.5 160.9 48.7
429.5 160.6 48.6
433.5 160.9 48.6
433.5 159.0 48.6
433.4 155.1 48.6
439.4 154.2 48.5
443.4 152.2 48.5
451.4 154.0 48.4
453.4 152.9 48.3
449.4 146.9 48.4
455.4 147.5 48.3
453.4 142.4 48.3
467.4 144.1 48.2
472.3 139.5 48.1
468.3 135.7 48.1
474.3 135.8 48.1
478.3 135.0 48.0
484.3 134.9 47.9
482.3 131.9 48.0
486.3 126.3 47.9
496.3 127.2 47.8
504.2 124.9 47.7
504.2 119.9 47.7
508.2 118.6 47.6
513.2 115.0 47.6
517.2 113.5 47.5
523.2 112.5 47.4
527.2 110.9 47.4
531.1 106.5 47.3
539.1 103.0 47.2
549.1 99.6 47.1
547.1 96.3 47.1
558.1 92.8 47.0
560.0 90.2 47.0
562.0 87.7 46.9
574.0 86.7 46.8
578.0 84.3 46.7
578.0 81.3 46.7
588.0 76.5 46.6
594.9 74.3 46.5
596.9 71.4 46.5
604.9 69.1 46.4
608.9 66.2 46.3
610.9 63.1 46.3
612.9 60.0 46.3
624.8 57.7 46.1
628.8 54.6 46.1
637.8 51.7 46.0
643.8 45.0 45.9
643.8 41.5 45.9
643.7 38.0 45.9
657.7 34.8 45.7
659.7 31.2 45.7
661.7 27.6 45.6
659.6 23.9 45.7
671.6 20.2 45.5
671.6 16.4 45.5
667.6 12.8 45.5
671.6 8.9 45.5
663.5 5.5 45.6
661.5 1.9 45.6
665.5 -2.0 45.5
663.5 -5.6 45.6
657.5 -8.9 45.6
663.4 -13.0 45.6
657.4 -16.2 45.6
653.4 -19.5 45.7
655.3 -26.9 45.6
649.3 -29.9 45.7
647.3 -33.2 45.7
649.3 -37.0 45.7
649.3 -40.6 45.7
637.2 -46.0 45.8
639.2 -49.8 45.8
633.2 -52.3 45.9
637.2 -56.5 45.8
635.1 -63.1 45.8
628.1 -65.2 45.9
628.1 -68.6 45.9
630.1 -72.5 45.9
624.1 -74.6 46.0
626.0 -78.5 45.9
624.0 -81.4 45.9
628.0 -89.2 45.9
622.0 -91.1 46.0
618.0 -93.4 46.0
617.9 -96.8 46.0
621.9 -101.2 45.9
611.9 -101.7 46.1
611.9 -105.1 46.1
609.9 -111.0 46.1
605.8 -113.1 46.1
607.8 -117.0 46.1
607.8 -120.2 46.1
609.8 -124.2 46.1
605.8 -126.1 46.1
595.8 -125.8 46.2
597.7 -129.7 46.2
597.7 -132.9 46.2
595.7 -138.6 46.2
595.7 -141.7 46.2
591.7 -143.3 46.3
593.6 -147.3 46.2
595.6 -151.3 46.2
591.6 -152.8 46.2
590.6 -155.5 46.3
582.6 -155.2 46.4
588.6 -160.9 46.3
588.5 -167.2 46.3
586.5 -169.4 46.3
580.5 -169.6 46.4
584.5 -174.6 46.3
580.5 -175.8 46.4
574.5 -175.9 46.4
578.4 -180.9 46.4
572.4 -180.9 46.4
574.4 -188.0 46.4
574.4 -191.0 46.4
574.4 -194.0 46.4
574.3 -197.0 46.4
570.3 -197.8 46.4
562.3 -199.3 46.5
560.3 -201.0 46.6
556.3 -207.4 46.6
560.3 -212.7 46.5
556.3 -213.1 46.6
558.2 -217.3 46.6
560.2 -221.4 46.5
554.2 -220.5 46.6
552.2 -222.1 46.6
552.2 -225.0 46.6
547.2 -224.5 46.7
549.1 -231.5 46.7
547.1 -233.0 46.7
550.1 -240.7 46.6
547.1 -241.4 46.7
545.0 -248.4 46.7
543.0 -249.7 46.7
543.0 -255.3 46.7
539.0 -257.8 46.7
537.0 -261.8 46.8
535.0 -262.9 46.8
530.9 -265.2 46.8
528.9 -274.3 46.8
524.9 -276.3 46.9
522.9 -279.8 46.9
510.7 -307.6 47.0
514.7 -314.1 47.0
510.6 -320.4 47.0
506.6 -326.4 47.1
503.6 -325.7 47.1
499.5 -333.8 47.1
499.5 -336.3 47.1
495.5 -334.3 47.2
497.5 -346.3 47.1
489.4 -351.5 47.2
489.4 -353.9 47.2
489.4 -358.7 47.2
485.4 -356.2 47.3
487.4 -363.4 47.2
365.6 189.9 48.0
369.6 189.0 48.0
373.6 189.5 47.9
372.6 187.2 47.9
380.6 184.7 47.7
387.6 188.7 47.6
391.6 188.6 47.5
387.6 183.9 47.6
396.6 189.1 47.4
391.6 183.7 47.5
393.6 183.6 47.5
395.6 183.4 47.4
392.6 179.6 47.5
397.6 181.5 47.4
399.5 177.9 47.3
396.5 174.2 47.4
404.5 178.0 47.2
403.5 173.9 47.3
410.5 175.0 47.1
410.5 173.2 47.1
407.5 169.5 47.2
411.5 170.3 47.1
411.5 166.8 47.1
411.5 165.0 47.1
417.5 165.0 47.0
423.5 166.7 46.9
429.5 168.3 46.7
421.4 160.0 46.9
429.4 162.6 46.7
426.4 159.0 46.8
433.4 160.9 46.7
437.4 159.1 46.6
437.4 157.1 46.6
435.4 152.2 46.6
441.4 151.2 46.5
449.4 153.0 46.3
449.4 146.9 46.3
451.3 145.7 46.3
457.3 146.3 46.2
459.3 145.0 46.1
472.3 139.5 45.9
472.3 137.2 45.9
474.3 135.8 45.8
476.3 134.3 45.8
482.3 134.2 45.7
482.3 131.9 45.6
482.2 129.6 45.6
480.2 126.6 45.7
490.2 127.6 45.5
496.2 127.2 45.4
500.2 123.7 45.3
500.2 118.8 45.3
508.2 118.6 45.1
517.2 116.1 44.9
521.1 114.6 44.9
521.1 112.0 44.9
529.1 111.4 44.7
531.1 109.2 44.7
523.1 104.6 44.8
535.1 104.8 44.6
539.1 103.0 44.5
541.1 100.7 44.4
551.1 100.0 44.2
552.0 97.3 44.2
558.0 92.8 44.1
562.0 90.6 44.0
562.0 87.7 44.0
572.0 86.4 43.8
574.0 83.7 43.8
575.9 81.0 43.7
589.9 76.8 43.4
592.9 74.0 43.4
596.9 71.4 43.3
604.9 69.1 43.1
610.9 66.4 43.0
604.8 62.6 43.1
614.8 60.2 42.9
624.8 57.7 42.7
626.8 54.4 42.7
626.8 51.0 42.7
641.7 44.9 42.4
645.7 41.6 42.3
657.7 38.4 42.1
649.7 34.6 42.2
657.6 31.2 42.0
661.6 27.6 42.0
663.6 23.9 41.9
665.6 20.2 41.9
673.5 16.4 41.7
665.5 12.8 41.9
665.5 9.1 41.9
661.5 5.5 41.9
659.5 1.9 42.0
659.4 -1.7 42.0
663.4 -5.6 41.9
657.4 -8.9 42.0
659.4 -12.7 42.0
657.4 -16.2 42.0
651.3 -22.9 42.1
653.3 -26.7 42.1
649.3 -29.9 42.1
649.3 -33.4 42.1
647.2 -36.8 42.2
649.2 -40.6 42.1
645.2 -43.6 42.2
643.2 -46.9 42.2
639.2 -49.8 42.3
637.1 -53.0 42.3
643.1 -57.5 42.2
633.1 -59.3 42.4
632.1 -62.5 42.4
624.0 -71.2 42.6
630.0 -75.9 42.4
626.0 -78.5 42.5
626.0 -81.9 42.5
626.0 -85.3 42.5
621.9 -87.7 42.6
619.9 -90.6 42.6
623.9 -95.0 42.5
617.9 -96.8 42.7
617.9 -100.1 42.6
613.8 -105.6 42.7
607.8 -107.2 42.8
607.8 -110.4 42.8
613.8 -115.6 42.7
609.8 -117.6 42.8
603.7 -122.2 42.9
609.7 -127.5 42.8
601.7 -127.9 42.9
597.7 -129.7 43.0
599.7 -133.7 43.0
599.7 -136.9 43.0
599.6 -140.1 43.0
593.6 -141.0 43.1
595.6 -148.1 43.0
590.5 -155.5 43.1
590.5 -158.6 43.1
588.5 -160.9 43.1
584.5 -165.3 43.2
586.5 -169.4 43.2
582.5 -170.6 43.3
584.4 -174.6 43.2
576.4 -173.8 43.4
574.4 -175.9 43.4
572.4 -177.9 43.4
572.4 -180.9 43.4
570.4 -188.9 43.5
572.3 -192.9 43.4
570.3 -194.8 43.5
570.3 -197.8 43.5
560.2 -209.8 43.6
560.2 -215.6 43.6
554.2 -223.4 43.7
556.1 -227.6 43.7
550.1 -226.5 43.8
556.1 -236.2 43.7
552.1 -236.4 43.8
552.1 -239.2 43.8
550.0 -243.5 43.8
545.0 -248.4 43.9
545.0 -251.2 43.9
545.0 -256.8 43.9
537.0 -253.5 44.0
538.9 -257.8 44.0
535.0 -257.5 44.1
536.9 -261.8 44.0
526.9 -264.6 44.2
524.9 -268.3 44.3
526.9 -272.6 44.2
524.8 -278.9 44.2
524.8 -281.6 44.2
520.8 -283.3 44.3
522.8 -290.4 44.3
520.8 -291.2 44.3
520.7 -293.8 44.3
520.7 -299.1 44.3
508.7 -295.6 44.5
508.7 -300.6 44.5
516.6 -310.9 44.4
510.7 -307.6 44.5
512.6 -312.2 44.4
506.7 -308.8 44.6
510.6 -315.3 44.5
508.6 -315.8 44.5
510.6 -320.4 44.5
508.6 -320.9 44.5
512.5 -330.1 44.4
506.6 -326.4 44.5
503.6 -325.7 44.6
497.5 -329.2 44.7
499.5 -333.8 44.7
342.8 215.8 47.3
342.7 210.8 47.3
345.7 213.0 47.2
347.7 213.9 47.1
349.7 210.9 47.1
344.7 202.9 47.2
349.7 205.7 47.1
353.7 207.3 47.0
351.7 201.2 47.0
354.7 201.6 46.9
361.7 207.3 46.7
358.7 202.9 46.8
361.6 197.5 46.7
364.6 196.1 46.6
359.6 190.1 46.8
368.6 196.9 46.5
371.6 195.2 46.4
370.6 192.8 46.5
370.6 189.9 46.5
375.6 185.2 46.3
384.6 189.4 46.1
381.6 183.9 46.2
380.5 181.6 46.2
384.6 183.1 46.1
390.5 181.3 45.9
394.5 182.7 45.8
391.5 178.8 45.9
399.5 181.3 45.7
404.4 165.9 45.5
414.5 170.4 45.2
409.4 165.5 45.4
414.4 166.8 45.2
411.4 163.2 45.3
417.4 165.0 45.2
418.4 163.8 45.1
415.4 160.2 45.2
423.4 163.0 45.0
427.4 161.5 44.9
433.4 160.9 44.7
433.4 159.0 44.7
433.4 155.1 44.7
441.4 155.2 44.5
437.4 151.2 44.6
437.3 145.3 44.6
449.3 144.8 44.3
457.3 144.1 44.0
465.3 143.3 43.8
468.3 142.3 43.7
470.3 140.9 43.7
474.3 140.3 43.6
474.3 138.0 43.6
474.2 135.8 43.6
476.2 134.3 43.5
478.2 130.4 43.4
486.2 131.0 43.2
492.2 130.7 43.1
490.2 127.6 43.1
492.2 123.5 43.1
506.2 125.5 42.7
502.2 121.8 42.8
506.2 120.5 42.7
513.1 117.5 42.5
513.1 115.0 42.5
517.1 113.5 42.4
525.1 113.0 42.1
529.1 106.1 42.0
535.0 104.8 41.9
537.0 102.5 41.8
545.0 101.5 41.6
547.0 99.1 41.5
552.0 97.3 41.4
554.0 94.9 41.3
560.0 93.1 41.2
558.0 89.9 41.2
553.9 86.3 41.3
581.9 84.9 40.5
583.9 82.2 40.5
587.9 79.6 40.4
589.9 76.8 40.3
591.9 73.9 40.3
594.8 71.1 40.2
600.8 68.6 40.0
610.8 66.4 39.7
614.8 63.5 39.6
614.8 60.2 39.6
622.7 57.5 39.4
628.7 54.6 39.2
639.7 51.9 38.9
639.7 48.4 38.9
645.6 41.6 38.7
649.6 38.2 38.6
649.6 34.6 38.6
659.6 31.2 38.4
661.6 27.6 38.3
659.5 23.9 38.3
669.5 20.2 38.1
667.5 12.8 38.1
663.4 9.2 38.2
665.4 5.4 38.2
667.4 1.6 38.1
663.4 -1.9 38.2
663.4 -5.6 38.2
657.3 -8.9 38.4
653.3 -12.2 38.5
653.3 -15.9 38.5
655.3 -19.6 38.4
653.3 -23.1 38.4
655.2 -26.9 38.4
651.2 -33.7 38.5
647.2 -36.8 38.6
647.2 -40.3 38.6
632.2 -41.8 39.0
637.1 -46.0 38.9
639.1 -49.8 38.8
637.1 -53.0 38.8
637.1 -56.5 38.8
630.1 -58.7 39.0
630.0 -62.2 39.0
633.0 -66.2 38.9
632.0 -72.9 39.0
626.0 -75.0 39.1
618.0 -76.7 39.3
627.9 -82.3 39.1
623.9 -84.8 39.2
623.9 -88.2 39.2
623.9 -91.6 39.2
615.9 -92.9 39.4
615.8 -96.2 39.4
617.8 -100.1 39.3
617.8 -103.4 39.3
613.8 -105.6 39.4
607.8 -107.1 39.6
607.8 -110.4 39.6
609.7 -114.3 39.5
611.7 -118.2 39.4
605.7 -119.6 39.6
603.7 -122.2 39.7
601.7 -124.7 39.7
601.7 -127.9 39.7
601.6 -131.2 39.7
599.6 -133.7 39.8
595.6 -138.6 39.9
599.6 -143.3 39.7
593.6 -144.1 39.9
593.5 -147.3 39.9
595.5 -151.3 39.8
591.5 -155.9 39.9
586.5 -156.9 40.1
590.5 -161.8 40.0
586.5 -163.1 40.1
584.4 -165.3 40.1
584.4 -168.4 40.1
580.4 -169.6 40.2
580.4 -172.7 40.2
580.4 -178.8 40.2
578.3 -184.0 40.3
570.3 -185.9 40.5
572.3 -189.9 40.4
568.3 -190.8 40.5
572.3 -195.9 40.4
566.3 -195.6 40.6
562.3 -196.3 40.7
558.3 -197.0 40.8
564.2 -206.3 40.6
560.2 -206.9 40.7
560.2 -209.8 40.7
560.2 -212.7 40.7
560.1 -218.5 40.7
556.1 -221.8 40.8
558.1 -226.0 40.8
552.1 -225.0 40.9
550.1 -226.5 41.0
554.1 -232.0 40.9
552.0 -233.5 40.9
549.0 -234.3 41.0
550.0 -240.7 41.0
547.0 -241.4 41.0
545.0 -245.6 41.1
545.0 -248.4 41.1
541.0 -248.3 41.2
538.9 -252.3 41.2
540.9 -256.6 41.2
536.9 -256.3 41.3
532.9 -255.9 41.4
536.9 -261.8 41.3
530.9 -265.2 41.4
530.9 -267.9 41.4
526.9 -267.3 41.5
528.8 -274.3 41.5
524.8 -276.3 41.6
518.8 -276.4 41.8
522.8 -285.1 41.6
516.7 -290.2 41.8
516.7 -295.4 41.8
514.7 -298.7 41.8
512.7 -299.3 41.9
512.6 -304.5 41.9
510.6 -310.2 41.9
508.6 -315.8 42.0
510.5 -320.4 41.9
505.5 -327.8 42.0
503.5 -330.7 42.1
499.5 -331.4 42.2
499.5 -336.3 42.2
497.5 -336.5 42.3
499.4 -341.2 42.2
501.4 -350.9 42.1
493.4 -349.0 42.3
493.4 -351.4 42.3
489.4 -351.5 42.5
491.3 -356.3 42.4
491.3 -361.1 42.4
487.3 -363.4 42.5
339.7 211.1 46.1
342.7 210.8 46.0
350.7 213.4 45.7
350.7 209.4 45.7
341.6 198.5 46.0
356.7 211.8 45.5
350.6 200.2 45.7
360.7 207.7 45.4
367.6 191.6 45.1
371.6 193.7 45.0
370.6 189.9 45.0
372.6 188.7 44.9
375.5 185.2 44.8
379.5 185.4 44.7
383.5 182.4 44.5
398.5 187.3 44.0
392.5 179.6 44.2
397.5 174.9 44.0
402.5 174.9 43.9
402.5 173.2 43.9
404.5 172.8 43.8
409.5 174.3 43.6
411.5 173.9 43.6
413.4 169.8 43.5
413.4 166.2 43.5
416.4 164.4 43.4
415.4 160.2 43.4
420.4 161.3 43.2
439.3 156.2 42.6
441.3 155.2 42.5
445.3 151.1 42.3
445.3 147.1 42.3
457.3 146.3 41.9
463.3 146.8 41.7
461.3 143.7 41.8
465.3 143.3 41.6
465.2 138.9 41.6
472.2 137.2 41.4
472.2 135.0 41.4
474.2 133.5 41.3
482.2 134.2 41.0
484.2 132.6 41.0
492.2 130.7 40.7
494.2 129.0 40.6
490.1 125.3 40.7
500.1 123.7 40.4
498.1 120.6 40.5
504.1 120.0 40.2
513.1 120.1 39.9
508.1 116.1 40.1
513.1 115.0 39.9
517.1 113.5 39.8
523.1 112.5 39.6
527.0 108.3 39.4
525.0 105.1 39.5
535.0 104.8 39.1
545.0 104.3 38.8
543.0 101.1 38.9
543.0 98.3 38.9
547.0 96.3 38.7
551.9 94.5 38.5
555.9 92.4 38.4
557.9 89.9 38.3
567.9 88.7 38.0
569.9 86.1 37.9
573.9 83.7 37.8
587.9 82.8 37.3
589.8 79.9 37.2
585.8 76.3 37.3
596.8 74.5 36.9
598.8 71.6 36.9
600.8 68.6 36.8
610.8 66.4 36.4
612.7 63.3 36.4
620.7 60.7 36.1
624.7 57.7 35.9
630.7 54.7 35.7
630.7 51.3 35.7
630.6 47.8 35.7
639.6 44.9 35.4
643.6 41.5 35.3
645.6 38.0 35.2
649.6 34.6 35.0
659.5 31.2 34.7
659.5 27.6 34.7
663.5 23.9 34.5
669.5 20.2 34.3
667.4 12.8 34.4
665.4 9.1 34.5
665.4 5.4 34.5
665.4 1.7 34.4
661.3 -1.8 34.6
659.3 -9.0 34.6
657.3 -12.5 34.7
653.3 -15.9 34.8
653.2 -19.5 34.8
655.2 -23.3 34.8
653.2 -26.7 34.8
649.2 -29.9 35.0
641.1 -46.6 35.2
641.1 -50.1 35.2
637.0 -53.0 35.4
635.0 -56.1 35.4
633.0 -59.2 35.5
630.0 -62.1 35.6
630.0 -65.6 35.6
634.9 -70.0 35.4
631.9 -72.9 35.5
625.9 -78.4 35.7
625.9 -81.9 35.7
615.9 -82.9 36.1
623.8 -88.2 35.8
617.8 -90.0 36.0
615.8 -92.9 36.0
621.8 -97.8 35.8
617.8 -100.1 36.0
615.8 -102.9 36.0
613.7 -105.6 36.1
609.7 -107.7 36.2
611.7 -111.6 36.2
609.7 -114.3 36.2
611.7 -118.2 36.1
603.6 -122.2 36.4
603.6 -128.6 36.4
599.6 -130.4 36.5
597.5 -139.3 36.6
595.5 -141.7 36.7
595.5 -144.9 36.7
599.5 -149.7 36.5
591.5 -152.8 36.8
590.4 -158.6 36.8
590.4 -161.8 36.8
588.4 -164.0 36.9
584.4 -165.3 37.0
584.4 -168.4 37.0
578.4 -168.7 37.2
582.3 -173.7 37.1
578.3 -177.8 37.2
578.3 -183.9 37.2
568.3 -181.8 37.6
572.3 -186.9 37.4
570.3 -188.8 37.5
568.2 -196.7 37.5
572.2 -201.9 37.4
564.2 -200.4 37.7
564.2 -206.3 37.7
568.1 -211.6 37.5
556.1 -210.2 37.9
554.1 -211.9 38.0
560.1 -218.5 37.8
558.1 -220.2 37.9
562.0 -225.6 37.7
554.1 -223.4 38.0
552.0 -227.8 38.1
550.0 -232.2 38.1
549.0 -234.3 38.2
543.0 -233.0 38.4
545.0 -240.0 38.3
539.0 -241.3 38.5
542.9 -246.9 38.4
538.9 -252.3 38.5
538.9 -255.1 38.5
538.9 -257.8 38.5
528.9 -252.8 38.8
534.9 -260.2 38.6
528.8 -263.6 38.8
530.8 -270.6 38.7
532.8 -277.6 38.7
522.8 -271.9 39.0
524.8 -276.2 38.9
524.7 -278.9 38.9
524.7 -281.6 38.9
522.7 -285.1 39.0
518.7 -286.8 39.1
520.7 -291.2 39.1
518.7 -292.0 39.1
520.6 -296.4 39.1
514.7 -293.5 39.3
508.7 -295.5 39.5
514.6 -306.4 39.3
510.6 -310.2 39.4
505.6 -310.3 39.6
506.6 -313.8 39.5
512.5 -322.4 39.3
510.5 -322.9 39.4
505.5 -322.8 39.5
505.5 -325.3 39.5
501.5 -323.6 39.7
501.5 -328.6 39.7
499.4 -331.3 39.7
499.4 -336.3 39.7
501.4 -340.9 39.7
497.4 -339.0 39.8
497.4 -343.9 39.8
495.4 -344.0 39.9
491.4 -346.7 40.0
495.3 -353.8 39.9
491.3 -353.9 40.0
493.3 -358.7 39.9
491.3 -361.1 40.0
487.3 -363.4 40.1
344.6 202.9 44.7
349.7 205.7 44.4
356.6 202.3 44.1
358.6 202.9 44.1
358.6 197.4 44.1
359.6 195.6 44.0
363.6 195.1 43.8
359.6 190.1 44.0
367.6 191.6 43.7
369.6 192.0 43.6
370.6 189.9 43.5
372.5 187.2 43.4
377.5 188.4 43.2
373.5 183.6 43.4
391.5 175.6 42.6
396.5 177.5 42.4
411.5 179.2 41.8
408.4 175.4 41.9
410.4 173.2 41.8
411.4 170.3 41.8
412.4 167.4 41.7
416.4 168.0 41.6
411.4 163.2 41.8
417.4 165.0 41.5
419.4 164.4 41.4
423.4 163.0 41.3
421.4 160.0 41.3
425.3 158.5 41.2
429.3 158.7 41.0
433.3 159.0 40.8
431.3 154.0 40.9
441.3 157.2 40.5
441.3 155.2 40.5
441.3 151.2 40.5
445.3 151.1 40.3
455.2 143.3 39.9
457.2 142.0 39.8
459.2 140.7 39.7
457.2 137.8 39.8
470.2 136.5 39.2
474.2 135.8 39.1
478.1 130.5 38.9
484.1 130.3 38.6
484.1 128.0 38.6
486.1 126.3 38.5
498.1 123.0 38.0
496.1 120.0 38.1
504.1 120.0 37.8
513.1 120.1 37.4
508.0 116.1 37.6
511.0 114.5 37.5
513.0 112.5 37.4
525.0 113.0 36.9
529.0 108.8 36.7
533.0 107.0 36.5
539.0 105.7 36.3
537.0 102.5 36.3
542.9 101.1 36.1
546.9 96.4 35.9
555.9 95.3 35.5
561.9 93.5 35.3
565.9 88.4 35.1
563.8 85.1 35.2
577.8 84.3 34.6
587.8 82.8 34.2
587.8 79.7 34.2
587.8 76.5 34.2
594.8 74.3 33.9
600.7 71.8 33.6
604.7 69.1 33.4
610.7 66.4 33.2
612.7 63.3 33.1
618.7 60.6 32.8
626.6 57.8 32.5
630.6 54.7 32.3
624.6 50.9 32.5
632.6 48.0 32.2
635.6 44.7 32.1
645.5 41.6 31.6
643.5 38.0 31.7
653.5 34.7 31.3
659.5 31.2 31.0
661.5 27.6 31.0
663.4 23.9 30.9
665.4 16.5 30.8
665.4 12.8 30.8
663.3 9.2 30.8
669.3 5.3 30.6
667.3 1.6 30.7
661.3 -5.5 30.9
659.2 -9.0 31.0
657.2 -12.5 31.1
653.2 -15.8 31.2
653.2 -19.5 31.2
655.2 -23.3 31.1
647.1 -26.1 31.5
651.1 -30.1 31.3
651.1 -33.7 31.3
649.1 -37.0 31.4
651.1 -40.9 31.3
641.0 -43.1 31.7
639.0 -46.3 31.8
641.0 -50.1 31.7
637.0 -53.0 31.9
632.0 -55.6 32.1
633.0 -59.2 32.0
629.9 -62.1 32.2
631.9 -66.0 32.1
631.9 -69.4 32.1
623.8 -81.4 32.4
621.8 -84.3 32.5
619.8 -87.2 32.5
621.8 -91.1 32.5
619.8 -93.9 32.5
619.7 -97.3 32.5
613.7 -99.0 32.8
617.7 -103.4 32.6
611.7 -105.0 32.9
609.7 -111.0 32.9
605.6 -113.1 33.1
607.6 -117.0 33.0
607.6 -126.8 33.0
601.6 -127.9 33.3
601.5 -131.2 33.3
597.5 -132.9 33.4
597.5 -145.7 33.4
599.4 -149.7 33.3
590.4 -152.4 33.7
586.4 -156.9 33.9
590.4 -161.8 33.7
588.3 -167.2 33.8
584.3 -171.5 33.9
580.3 -172.7 34.1
574.3 -175.9 34.3
578.3 -180.9 34.2
576.3 -182.9 34.2
576.2 -186.0 34.2
572.2 -186.9 34.4
568.2 -187.8 34.6
570.2 -191.8 34.5
570.2 -194.8 34.5
570.2 -197.8 34.5
562.2 -199.2 34.8
564.1 -206.3 34.7
560.1 -206.8 34.9
566.1 -213.4 34.6
558.1 -211.5 35.0
562.1 -216.8 34.8
558.1 -217.3 35.0
560.0 -221.4 34.9
554.0 -220.5 35.1
554.0 -223.4 35.1
552.0 -227.8 35.2
554.0 -234.9 35.1
549.0 -234.3 35.3
548.9 -242.8 35.3
538.9 -241.3 35.7
542.9 -246.9 35.6
542.9 -249.7 35.6
544.8 -256.8 35.5
538.8 -255.1 35.7
534.8 -257.5 35.9
536.8 -261.8 35.8
530.8 -259.8 36.1
528.8 -263.6 36.1
528.8 -266.2 36.1
530.7 -278.6 36.0
524.7 -276.2 36.3
526.7 -280.6 36.2
505.4 -332.8 37.0
503.4 -335.7 37.1
499.4 -336.3 37.3
497.4 -336.5 37.4
493.4 -336.9 37.5
497.3 -343.9 37.4
497.3 -346.3 37.3
493.3 -349.0 37.5
497.3 -356.1 37.3
491.2 -361.1 37.6
485.3 -356.2 37.8
342.7 215.8 43.5
339.7 211.1 43.6
346.7 212.8 43.3
346.7 209.0 43.3
347.7 208.8 43.2
345.6 198.9 43.3
348.6 200.8 43.2
349.6 200.5 43.1
361.6 208.7 42.5
358.6 202.9 42.7
367.5 191.6 42.2
365.5 188.4 42.3
371.5 190.8 42.0
374.5 190.4 41.9
370.5 185.5 42.1
377.5 188.4 41.7
376.5 183.0 41.8
387.5 188.7 41.2
383.5 183.9 41.4
386.5 183.1 41.3
392.5 184.5 41.0
392.5 182.8 41.0
393.5 181.9 40.9
392.5 179.6 41.0
394.4 176.1 40.9
398.4 177.2 40.7
408.4 171.9 40.2
411.4 172.1 40.0
410.4 169.7 40.0
411.4 168.6 40.0
412.4 167.4 39.9
415.4 167.4 39.8
423.4 166.7 39.4
421.3 161.8 39.5
423.3 161.1 39.4
426.3 159.0 39.2
431.3 157.9 39.0
427.3 152.0 39.2
441.3 157.2 38.5
437.3 153.2 38.7
445.3 153.2 38.3
445.3 151.1 38.3
445.2 149.1 38.3
447.2 148.0 38.2
449.2 146.9 38.1
453.2 146.6 37.9
457.2 146.3 37.7
455.2 141.2 37.8
467.2 137.5 37.2
468.1 133.5 37.1
474.1 133.5 36.8
478.1 132.7 36.6
482.1 131.9 36.4
480.1 128.9 36.5
490.1 130.0 36.0
488.1 127.0 36.1
496.1 127.2 35.7
502.1 126.8 35.4
504.1 124.9 35.3
500.0 121.2 35.5
509.0 118.9 35.0
509.0 116.4 35.0
511.0 114.5 34.9
513.0 112.5 34.8
525.0 107.8 34.2
532.9 107.0 33.8
536.9 105.3 33.6
532.9 101.6 33.8
542.9 101.1 33.3
550.9 100.0 32.9
555.9 98.2 32.7
553.9 94.9 32.8
559.8 93.2 32.5
563.8 91.0 32.3
567.8 85.8 32.0
575.8 84.0 31.6
577.8 81.3 31.5
587.7 79.7 31.0
589.7 76.8 30.9
594.7 74.3 30.7
600.7 71.8 30.4
602.7 68.9 30.3
616.6 63.7 29.6
616.6 60.4 29.6
620.6 57.4 29.4
637.6 55.2 28.5
633.6 51.5 28.7
635.5 48.1 28.6
641.5 45.0 28.3
639.5 41.4 28.4
645.5 38.1 28.1
655.4 34.8 27.6
653.4 31.1 27.7
661.4 27.6 27.3
663.4 23.9 27.2
671.3 20.2 26.8
678.3 16.4 26.4
669.3 12.7 26.9
661.3 9.2 27.3
663.3 5.5 27.2
659.2 2.0 27.3
661.2 -1.8 27.2
657.2 -8.9 27.4
659.2 -12.7 27.3
653.1 -15.8 27.6
657.1 -19.8 27.4
651.1 -22.9 27.7
647.1 -26.1 27.9
651.1 -30.1 27.7
647.0 -36.8 27.9
643.0 -39.8 28.1
643.0 -43.3 28.1
643.0 -46.9 28.1
637.0 -49.5 28.4
636.9 -53.0 28.4
629.9 -55.3 28.7
634.9 -59.6 28.5
631.9 -62.5 28.6
629.9 -65.6 28.7
632.8 -69.6 28.6
621.8 -77.5 29.1
627.8 -82.3 28.8
619.8 -83.8 29.2
621.7 -87.7 29.1
623.7 -91.6 29.0
621.7 -94.4 29.1
617.7 -96.7 29.3
621.7 -101.2 29.1
611.7 -101.7 29.6
609.6 -104.4 29.7
609.6 -111.0 29.7
611.6 -114.9 29.5
607.6 -116.9 29.7
605.6 -119.6 29.8
607.5 -123.5 29.7
603.5 -125.4 29.9
601.5 -131.2 30.0
599.5 -133.6 30.1
597.5 -136.1 30.2
603.4 -141.6 29.9
595.4 -141.7 30.3
591.4 -143.3 30.5
595.4 -148.1 30.3
595.4 -151.3 30.3
593.4 -153.6 30.4
590.4 -155.5 30.5
591.3 -159.1 30.5
590.3 -164.9 30.5
588.3 -167.1 30.6
588.3 -170.3 30.6
584.2 -174.6 30.8
580.2 -175.8 31.0
578.2 -177.8 31.1
578.2 -180.9 31.1
574.2 -187.9 31.3
572.2 -189.9 31.4
570.2 -191.8 31.5
562.0 -216.8 31.9
558.0 -223.1 32.1
546.9 -241.4 32.6
542.9 -244.1 32.8
540.9 -245.5 32.9
540.8 -248.3 32.9
542.8 -252.5 32.8
540.8 -256.6 32.9
538.8 -257.8 33.0
534.8 -257.5 33.2
532.8 -258.6 33.3
532.8 -261.3 33.3
532.8 -264.1 33.3
534.7 -268.4 33.2
530.7 -267.9 33.4
526.7 -267.3 33.6
530.7 -275.9 33.3
522.6 -285.1 33.7
522.6 -287.7 33.7
524.6 -294.8 33.6
520.6 -293.8 33.8
508.6 -293.0 34.4
514.5 -301.2 34.1
514.5 -306.4 34.1
512.5 -307.0 34.2
508.5 -305.7 34.4
505.5 -310.3 34.5
506.5 -313.8 34.5
501.5 -316.2 34.7
503.4 -320.7 34.6
503.4 -323.2 34.6
501.4 -333.5 34.7
499.3 -336.3 34.8
499.3 -341.2 34.8
495.3 -341.6 35.0
493.3 -349.0 35.1
493.3 -351.4 35.1
489.3 -351.5 35.3
489.2 -356.3 35.3
493.2 -363.5 35.1
485.2 -356.2 35.5
487.2 -363.4 35.4
485.2 -363.3 35.5
343.7 212.0 42.2
347.7 213.9 42.0
348.6 209.9 41.9
346.6 194.8 42.0
352.6 199.6 41.7
357.6 196.4 41.4
364.6 201.8 41.0
361.5 190.5 41.1
368.5 192.5 40.7
368.5 191.1 40.7
369.5 189.0 40.7
385.5 187.1 39.7
387.5 183.9 39.6
388.5 183.1 39.6
388.4 181.5 39.6
387.4 177.5 39.6
391.4 177.2 39.4
394.4 176.1 39.2
400.4 176.9 38.9
401.4 174.2 38.8
404.4 174.5 38.6
403.4 172.1 38.7
412.4 169.2 38.2
427.3 161.5 37.3
429.3 160.7 37.2
429.3 156.8 37.2
435.3 158.1 36.8
433.3 155.1 36.9
437.2 153.2 36.7
445.2 153.2 36.2
447.2 152.1 36.1
445.2 149.1 36.2
445.2 147.1 36.2
453.2 142.4 35.8
459.2 140.7 35.4
459.1 138.6 35.4
467.1 137.5 35.0
474.1 138.0 34.6
474.1 135.8 34.6
476.1 134.3 34.4
470.1 129.8 34.8
480.1 128.9 34.2
484.1 128.0 34.0
494.1 129.0 33.4
496.0 124.8 33.3
500.0 123.7 33.0
500.0 121.2 33.0
506.0 120.6 32.7
502.0 116.9 32.9
519.0 116.7 31.9
519.0 114.1 31.9
522.9 112.5 31.7
522.9 109.9 31.7
528.9 108.8 31.4
538.9 103.0 30.8
538.9 100.2 30.8
553.8 97.8 29.9
559.8 96.1 29.6
557.8 92.8 29.7
561.8 90.6 29.4
567.8 85.8 29.1
573.7 83.7 28.7
579.7 81.6 28.4
587.7 79.7 27.9
594.7 77.5 27.5
598.7 74.8 27.3
600.6 71.9 27.2
608.6 66.2 26.7
614.6 63.5 26.4
618.6 60.6 26.1
620.5 57.4 26.0
630.5 54.7 25.4
620.5 50.7 26.0
639.5 48.4 24.9
643.5 45.1 24.7
671.2 12.7 23.0
669.2 9.0 23.1
663.2 5.5 23.5
659.2 -1.7 23.7
659.1 -5.3 23.7
661.1 -12.8 23.6
657.1 -16.2 23.8
655.1 -19.6 23.9
655.0 -23.2 23.9
645.0 -29.4 24.5
645.0 -36.5 24.4
641.0 -39.5 24.7
642.9 -43.3 24.6
642.9 -46.9 24.6
640.9 -50.1 24.7
634.9 -52.6 25.0
636.9 -56.5 24.9
632.8 -59.2 25.1
631.8 -62.5 25.2
627.8 -65.2 25.4
629.8 -69.0 25.3
629.8 -72.4 25.3
625.7 -78.4 25.5
623.7 -81.4 25.6
619.7 -87.2 25.8
619.7 -90.5 25.8
619.7 -93.9 25.8
619.6 -97.3 25.8
617.6 -100.1 25.9
609.6 -107.7 26.4
607.6 -110.4 26.5
609.5 -114.3 26.4
607.5 -116.9 26.5
607.5 -120.2 26.5
607.5 -123.5 26.5
603.5 -125.4 26.7
603.5 -128.6 26.7
599.4 -133.6 26.9
597.4 -136.1 27.0
595.4 -144.9 27.1
595.4 -148.1 27.1
595.3 -151.3 27.1
593.3 -153.6 27.2
590.3 -158.6 27.4
590.3 -161.8 27.4
588.2 -167.1 27.5
586.2 -169.3 27.6
582.2 -173.6 27.8
576.2 -176.8 28.2
574.1 -191.0 28.3
576.1 -195.1 28.2
578.1 -199.2 28.0
566.1 -195.6 28.7
564.1 -197.4 28.8
566.0 -210.4 28.7
564.0 -215.1 28.8
562.0 -216.8 28.9
560.0 -218.5 29.1
559.9 -221.4 29.0
557.9 -223.1 29.2
555.9 -224.7 29.3
551.9 -224.9 29.5
551.9 -227.8 29.5
551.9 -230.6 29.5
548.9 -234.3 29.7
553.8 -240.6 29.4
546.8 -241.4 29.8
544.8 -245.6 29.9
538.8 -244.0 30.2
542.8 -249.7 30.0
544.8 -254.0 29.9
542.8 -255.3 30.0
540.7 -259.3 30.1
536.7 -259.0 30.3
532.7 -258.6 30.6
536.7 -264.5 30.3
534.7 -265.6 30.4
536.7 -270.0 30.3
534.7 -271.1 30.4
530.6 -275.9 30.6
530.6 -278.6 30.6
528.6 -279.6 30.8
524.6 -284.2 31.0
522.6 -285.1 31.1
520.6 -291.2 31.2
520.5 -296.4 31.2
516.5 -295.3 31.4
518.5 -299.8 31.3
514.5 -298.7 31.5
516.5 -303.1 31.4
514.5 -306.4 31.5
510.5 -307.6 31.8
508.4 -313.3 31.9
510.4 -317.8 31.7
506.4 -316.3 32.0
508.4 -320.8 31.9
505.4 -322.8 32.0
503.4 -323.2 32.1
501.3 -333.5 32.2
499.3 -341.2 32.3
497.3 -341.4 32.5
493.3 -339.3 32.7
489.1 -365.9 32.9
343.6 206.9 40.9
347.6 204.9 40.7
355.6 206.7 40.1
358.6 205.7 39.9
361.6 201.7 39.7
368.5 191.1 39.3
371.5 190.8 39.1
370.5 185.5 39.1
378.5 190.7 38.6
378.5 187.7 38.6
374.4 181.4 38.9
379.4 183.9 38.5
380.4 183.1 38.5
381.4 182.4 38.4
388.5 186.3 38.0
389.4 183.8 37.9
395.4 176.8 37.5
393.4 172.1 37.6
402.4 173.2 37.0
402.4 171.5 37.0
413.4 177.0 36.3
405.3 166.6 36.8
