501.3 206.8 84.5
503.2 198.1 84.7
505.2 186.8 84.9
505.1 179.4 84.9
505.0 164.5 84.9
503.0 161.2 84.7
504.9 149.6 84.9
504.7 110.0 84.8
502.6 99.6 84.6
504.6 92.6 84.8
506.6 90.6 85.0
504.6 87.7 84.8
504.6 85.2 84.8
506.5 73.1 85.0
506.5 70.6 85.0
506.5 68.1 85.0
510.4 407.0 83.1
513.4 397.9 83.4
511.3 385.5 83.2
513.3 380.1 83.3
513.1 354.8 83.3
515.1 344.1 83.5
510.0 336.8 83.0
510.0 331.8 83.0
511.0 330.2 83.1
514.9 321.2 83.5
514.9 313.5 83.4
509.8 306.7 83.0
518.9 306.7 83.8
505.7 288.4 82.6
512.8 291.6 83.2
507.7 280.1 82.7
505.6 271.1 82.5
510.6 269.8 83.0
509.6 261.6 82.9
514.6 262.6 83.4
509.5 254.0 82.9
507.5 245.2 82.7
512.5 246.0 83.2
507.4 240.2 82.7
503.4 232.6 82.3
507.4 227.7 82.7
507.4 225.2 82.7
512.4 223.2 83.1
510.3 214.5 82.9
510.3 206.9 82.9
510.2 201.9 82.9
503.2 195.7 82.3
503.1 188.3 82.3
505.1 186.8 82.4
507.1 182.8 82.6
509.1 173.8 82.8
507.0 170.4 82.6
505.0 162.0 82.4
509.0 158.7 82.8
500.9 150.5 82.0
500.9 143.2 82.0
506.9 142.9 82.6
506.9 140.4 82.6
508.8 136.1 82.7
508.8 131.1 82.7
506.8 128.0 82.6
508.8 126.1 82.7
509.8 123.9 82.8
509.8 121.4 82.8
509.7 111.3 82.8
506.7 108.0 82.5
508.7 106.0 82.7
500.6 101.6 82.0
508.6 101.0 82.7
509.6 98.7 82.8
504.5 87.7 82.3
506.5 85.6 82.5
504.5 82.7 82.3
511.5 81.5 83.0
504.5 77.8 82.3
509.5 76.1 82.8
506.5 73.1 82.5
511.4 68.8 82.9
523.5 67.9 84.1
515.3 389.9 81.0
513.2 380.1 80.8
510.2 366.9 80.5
517.2 369.0 81.1
510.9 330.2 80.6
512.9 321.9 80.7
518.9 324.7 81.3
510.8 310.1 80.5
512.8 309.3 80.7
512.8 301.7 80.7
505.7 290.9 80.1
505.6 278.5 80.1
505.6 271.1 80.1
509.6 271.6 80.4
512.6 271.3 80.7
512.6 266.2 80.7
507.5 252.6 80.2
510.5 247.2 80.5
514.5 247.3 80.8
512.4 230.8 80.6
507.3 225.2 80.2
507.3 222.7 80.2
514.3 224.4 80.8
509.3 218.9 80.3
505.2 211.6 80.0
509.2 208.9 80.3
510.2 206.9 80.4
505.2 201.7 80.0
507.2 197.8 80.1
509.2 196.3 80.3
507.1 190.3 80.1
505.1 181.9 80.0
501.0 177.5 79.6
507.0 172.9 80.1
512.0 167.5 80.5
508.9 158.7 80.3
502.9 153.8 79.7
508.9 153.7 80.3
506.9 150.4 80.1
502.9 146.4 79.7
508.9 146.2 80.3
508.8 143.7 80.3
504.8 139.7 79.9
508.8 138.7 80.2
508.8 136.1 80.2
511.8 134.6 80.5
508.8 128.6 80.2
506.7 125.5 80.1
508.7 121.1 80.2
508.7 113.6 80.2
508.6 108.6 80.2
508.6 101.0 80.2
508.6 98.5 80.2
509.6 96.2 80.3
509.6 93.7 80.3
508.5 88.5 80.2
508.5 86.0 80.2
506.5 83.1 80.0
515.5 82.2 80.8
506.5 78.1 80.0
508.4 75.9 80.2
508.4 73.4 80.2
508.4 70.9 80.2
517.4 69.7 80.9
519.4 67.4 81.1
531.4 66.3 82.1
554.5 66.3 84.1
558.4 63.9 84.5
513.4 408.0 78.3
513.3 400.4 78.3
519.4 404.6 78.8
517.3 392.1 78.6
510.2 376.9 78.0
517.1 369.1 78.6
517.1 361.4 78.6
513.1 354.8 78.2
510.0 344.3 78.0
511.0 340.3 78.1
521.0 347.2 78.9
523.0 343.9 79.0
514.9 333.9 78.4
516.9 328.1 78.5
514.8 311.0 78.3
510.7 300.0 78.0
514.7 300.8 78.3
507.7 290.0 77.8
507.6 280.1 77.8
507.6 275.1 77.8
512.6 271.3 78.1
507.5 265.1 77.7
509.5 264.1 77.9
510.5 257.2 78.0
510.5 254.7 78.0
509.4 249.0 77.9
505.3 233.9 77.5
509.3 234.0 77.9
503.3 222.8 77.4
510.3 219.5 77.9
507.2 215.2 77.7
509.2 213.9 77.8
507.2 205.3 77.7
509.2 203.9 77.8
501.1 187.3 77.2
509.1 186.3 77.8
509.0 183.8 77.8
507.0 180.3 77.6
509.0 178.8 77.8
509.0 176.3 77.8
503.0 171.0 77.3
508.9 166.2 77.8
504.9 159.6 77.5
504.9 157.1 77.4
508.9 156.2 77.8
506.8 150.4 77.6
511.8 147.3 78.0
506.8 142.9 77.6
508.8 141.2 77.7
508.8 136.1 77.7
511.8 134.6 78.0
508.7 126.1 77.7
506.7 123.0 77.6
506.6 113.0 77.5
511.6 111.9 77.9
506.6 108.0 77.5
506.5 100.6 77.5
506.5 95.6 77.5
502.5 92.2 77.2
506.5 90.6 77.5
504.5 87.7 77.4
508.5 86.0 77.7
502.4 82.4 77.2
511.4 81.5 77.9
508.4 78.5 77.7
508.4 73.4 77.7
506.4 70.6 77.5
511.4 68.8 77.9
508.3 65.9 77.6
531.4 66.3 79.5
551.4 65.9 81.0
560.4 64.1 81.7
568.4 62.0 82.3
515.3 400.1 75.9
515.2 389.9 75.9
513.2 377.6 75.7
515.1 372.1 75.9
517.1 369.1 76.0
511.0 355.4 75.6
511.0 352.9 75.6
516.9 335.8 76.0
516.9 328.1 76.0
518.8 324.7 76.1
514.8 316.1 75.8
514.8 313.5 75.8
516.7 305.0 75.9
510.6 292.5 75.5
512.6 291.6 75.6
512.6 289.0 75.6
512.6 284.0 75.6
510.5 272.3 75.5
509.5 264.1 75.4
509.5 261.6 75.4
509.4 251.5 75.4
509.4 249.0 75.4
509.4 246.5 75.4
507.3 240.2 75.2
507.3 237.7 75.2
512.3 233.4 75.6
510.3 229.6 75.4
512.3 228.3 75.6
516.3 228.2 75.8
509.2 221.4 75.3
507.2 215.2 75.2
512.2 215.6 75.5
507.1 205.3 75.2
507.1 202.8 75.2
510.1 196.9 75.4
509.1 193.8 75.3
505.0 189.3 75.0
509.0 183.8 75.3
509.0 181.3 75.3
505.0 176.9 75.0
507.0 175.4 75.1
502.9 166.1 74.8
508.9 163.7 75.3
504.8 154.6 75.0
508.8 153.7 75.2
508.8 151.2 75.2
508.8 148.7 75.2
509.8 144.0 75.3
508.7 138.7 75.2
508.7 136.2 75.2
509.7 134.0 75.3
509.7 123.9 75.3
509.6 121.4 75.3
508.6 118.6 75.2
506.6 113.0 75.1
509.6 111.3 75.3
506.6 108.0 75.1
506.5 105.5 75.0
511.5 96.7 75.4
504.5 92.7 74.9
508.5 91.0 75.2
504.4 87.7 74.9
509.4 86.2 75.2
500.4 82.0 74.6
511.4 81.5 75.4
506.3 70.6 75.0
511.3 68.8 75.4
517.3 67.1 75.8
535.3 66.8 77.1
549.4 65.7 78.0
562.4 64.3 79.0
576.4 62.8 80.0
597.4 61.8 81.4
519.3 407.2 73.6
521.3 406.8 73.8
513.1 382.7 73.2
517.1 369.1 73.5
511.0 352.9 73.1
513.0 352.3 73.2
517.0 351.1 73.4
518.9 337.6 73.5
518.8 329.9 73.5
510.7 312.6 73.0
509.7 306.7 72.9
509.6 291.7 72.9
512.6 291.6 73.1
512.5 278.9 73.1
510.5 272.3 73.0
510.4 264.8 72.9
507.4 260.1 72.8
510.4 257.3 72.9
505.3 243.8 72.6
514.3 247.3 73.2
509.3 241.5 72.9
509.3 239.0 72.9
507.3 235.2 72.7
507.3 232.7 72.7
512.2 225.8 73.0
512.2 223.2 73.0
510.2 214.5 72.9
507.1 207.8 72.7
509.1 206.4 72.8
509.1 201.4 72.8
510.0 194.4 72.9
507.0 190.3 72.7
509.0 188.8 72.8
507.0 182.8 72.7
506.9 177.9 72.6
502.9 173.5 72.4
508.9 166.3 72.8
508.8 158.7 72.7
506.8 155.4 72.6
508.8 153.7 72.7
506.8 150.4 72.6
506.7 142.9 72.6
508.7 141.2 72.7
506.7 133.0 72.6
506.7 130.5 72.6
509.6 129.0 72.8
506.6 125.5 72.6
511.6 124.5 72.9
508.6 121.1 72.7
509.6 118.9 72.8
504.5 112.5 72.4
509.5 111.3 72.8
508.5 101.0 72.7
511.5 99.2 72.9
509.5 96.2 72.7
506.4 93.1 72.5
506.4 90.6 72.5
508.4 88.5 72.7
509.4 86.2 72.7
506.4 83.1 72.5
513.4 81.9 73.0
508.3 78.5 72.6
506.3 75.6 72.5
506.3 73.1 72.5
508.3 70.9 72.6
508.3 68.4 72.6
523.3 67.9 73.6
545.3 68.0 75.0
562.3 67.2 76.1
564.3 64.5 76.2
578.3 63.0 77.1
593.3 61.4 78.0
515.2 402.7 70.8
513.2 390.3 70.7
515.1 384.8 70.8
515.1 379.7 70.8
517.1 374.2 70.9
515.0 356.8 70.8
514.8 326.3 70.7
516.8 323.0 70.8
512.7 314.3 70.6
518.7 306.7 70.9
509.6 291.7 70.4
507.4 267.6 70.3
512.4 266.3 70.5
510.4 262.3 70.4
510.4 257.3 70.4
507.3 252.6 70.2
509.3 241.5 70.3
510.3 239.6 70.4
509.2 234.0 70.3
516.2 233.3 70.7
509.2 221.4 70.3
509.1 218.9 70.3
509.1 216.4 70.3
509.0 201.4 70.3
509.0 198.9 70.3
507.0 195.3 70.2
509.0 191.3 70.3
510.0 189.3 70.3
506.9 185.3 70.2
508.9 181.3 70.3
508.9 178.8 70.3
506.9 175.4 70.2
508.9 171.3 70.3
508.8 153.7 70.2
509.7 149.1 70.3
509.7 146.6 70.3
508.7 143.7 70.2
511.7 137.2 70.4
508.6 133.6 70.2
508.6 131.1 70.2
506.6 128.0 70.1
508.6 126.1 70.2
506.6 123.0 70.1
506.5 118.0 70.1
509.5 116.4 70.2
511.5 111.9 70.3
506.5 103.1 70.1
508.4 101.0 70.2
509.4 96.2 70.2
508.4 93.5 70.2
508.4 91.0 70.2
508.4 88.5 70.2
509.3 81.2 70.2
509.3 78.6 70.2
506.3 73.1 70.0
506.3 70.7 70.0
521.3 70.3 70.9
529.3 68.7 71.3
545.3 68.0 72.2
552.3 66.1 72.6
564.3 64.5 73.2
605.3 62.5 75.5
519.3 414.9 68.5
515.2 402.7 68.3
511.1 390.6 68.1
509.9 351.9 68.0
512.9 347.3 68.1
518.9 347.9 68.4
516.8 340.9 68.3
518.8 337.6 68.4
510.7 325.2 68.0
518.8 329.9 68.4
514.6 303.4 68.2
507.5 287.6 67.8
509.4 261.6 67.9
510.3 259.8 67.9
507.3 250.2 67.8
510.3 249.7 67.9
512.3 246.0 68.0
507.2 240.2 67.7
509.2 236.5 67.8
510.2 232.1 67.9
514.2 232.1 68.1
514.2 229.5 68.1
510.1 222.0 67.9
509.1 218.9 67.8
509.1 216.4 67.8
505.0 206.6 67.6
507.0 202.8 67.7
509.0 201.4 67.8
506.9 192.8 67.7
506.9 190.3 67.7
508.9 186.3 67.8
508.9 183.8 67.8
508.9 178.8 67.8
504.8 174.4 67.6
508.8 171.3 67.8
511.8 170.1 67.9
506.8 162.9 67.6
508.7 156.2 67.7
509.7 151.6 67.8
508.7 143.7 67.7
504.6 139.7 67.5
506.6 138.0 67.6
511.6 137.2 67.9
506.6 133.0 67.6
509.6 131.5 67.7
508.6 128.6 67.7
511.6 127.1 67.8
508.5 123.6 67.7
508.5 121.1 67.7
509.5 118.9 67.7
508.5 111.1 67.7
509.5 108.8 67.7
504.4 105.1 67.5
506.4 98.1 67.6
509.4 96.3 67.7
508.4 93.5 67.7
508.3 91.0 67.6
509.3 88.7 67.7
508.3 86.0 67.6
508.3 83.5 67.6
513.3 81.9 67.9
506.3 78.1 67.5
509.3 76.1 67.7
506.2 73.1 67.5
509.2 68.6 67.7
523.2 67.9 68.3
537.2 67.0 69.0
552.2 66.1 69.7
562.2 64.3 70.2
592.3 64.5 71.7
605.3 62.5 72.3
519.2 407.2 65.9
519.1 396.9 65.9
523.1 388.2 66.0
521.0 378.3 66.0
510.9 357.9 65.5
512.9 357.4 65.6
510.6 307.6 65.5
514.6 308.5 65.6
512.6 301.7 65.5
510.5 287.5 65.4
512.5 286.5 65.5
512.4 278.9 65.5
518.4 278.4 65.7
512.3 263.7 65.5
512.3 261.2 65.5
510.3 257.3 65.4
509.3 254.1 65.3
507.2 250.2 65.3
509.2 249.0 65.3
509.2 244.0 65.3
509.2 241.5 65.3
512.2 238.4 65.4
510.1 232.1 65.4
510.1 229.6 65.4
512.1 223.2 65.4
510.1 219.5 65.3
510.1 217.0 65.3
510.0 214.5 65.3
506.9 192.8 65.2
508.9 186.3 65.3
504.8 181.9 65.1
508.8 168.8 65.2
502.7 163.7 65.0
508.7 163.8 65.2
508.7 161.2 65.2
511.7 160.0 65.4
506.7 152.9 65.1
508.7 148.7 65.2
506.6 145.5 65.1
509.6 144.1 65.2
511.6 142.3 65.3
511.6 139.7 65.3
508.6 136.2 65.2
509.6 134.0 65.2
508.5 126.1 65.2
511.5 122.0 65.3
506.5 115.5 65.1
509.4 113.9 65.2
506.4 110.5 65.1
508.4 108.6 65.2
511.4 106.8 65.3
506.4 103.1 65.1
509.4 101.3 65.2
506.4 98.1 65.1
509.3 93.7 65.2
506.3 90.6 65.1
508.3 88.5 65.1
504.3 82.8 65.0
513.3 81.9 65.3
504.2 77.8 65.0
508.2 76.0 65.1
511.2 73.9 65.2
513.2 69.1 65.3
521.2 67.7 65.6
551.2 65.9 66.9
570.2 65.2 67.6
595.2 61.6 68.6
1013.5 -955.6 84.6
962.5 -950.3 82.5
514.9 359.4 63.1
509.8 351.9 63.0
510.8 347.8 63.0
516.8 348.6 63.2
514.7 339.0 63.1
518.7 337.6 63.2
516.7 328.1 63.2
510.6 315.1 63.0
514.6 311.0 63.1
512.5 306.8 63.0
512.5 301.7 63.0
514.5 300.8 63.1
512.5 296.6 63.0
510.4 287.5 62.9
510.4 284.9 62.9
509.4 279.1 62.9
507.4 275.1 62.8
512.4 276.4 63.0
509.3 269.1 62.9
510.3 264.8 62.9
512.3 263.7 63.0
516.1 235.9 63.0
510.1 224.6 62.8
512.1 223.2 62.9
509.0 218.9 62.8
510.0 209.5 62.8
510.0 207.0 62.8
508.9 201.4 62.8
511.9 200.5 62.9
508.9 196.4 62.8
506.9 192.8 62.7
508.9 191.3 62.8
511.9 190.3 62.9
508.8 186.3 62.8
511.8 185.3 62.9
511.8 182.8 62.8
509.8 176.8 62.8
511.8 175.2 62.8
513.8 173.5 62.9
509.7 169.2 62.8
513.7 168.4 62.9
513.7 163.3 62.9
509.7 159.2 62.8
502.6 148.9 62.5
506.6 147.9 62.6
506.6 145.5 62.6
513.6 145.5 62.9
509.6 141.5 62.7
511.6 139.7 62.8
515.5 136.0 62.9
515.5 133.5 62.9
509.5 126.4 62.7
513.5 122.6 62.8
515.5 120.6 62.9
513.4 115.0 62.8
513.4 112.4 62.8
509.4 108.8 62.7
509.3 103.8 62.7
509.3 98.8 62.7
513.3 94.6 62.8
509.3 88.7 62.7
511.2 86.6 62.7
515.2 84.8 62.9
511.2 81.5 62.7
504.2 77.8 62.5
511.2 76.5 62.7
511.2 73.9 62.7
509.2 71.1 62.6
521.1 67.7 63.0
541.2 67.5 63.7
551.2 66.0 64.0
580.2 66.3 65.0
588.2 64.1 65.2
593.2 61.4 65.4
1209.6 -947.5 84.7
1201.5 -955.6 84.5
1185.5 -955.7 83.9
1177.5 -963.3 83.7
1150.6 -944.2 82.8
1150.5 -951.6 82.8
1134.5 -950.3 82.3
1130.5 -953.5 82.1
1119.5 -949.5 81.8
1048.5 -949.8 79.4
1037.4 -957.3 79.0
1021.4 -958.5 78.5
1005.4 -959.0 78.0
962.4 -950.3 76.6
515.1 405.2 60.7
519.0 396.9 60.7
515.0 384.8 60.6
518.9 376.3 60.7
514.8 361.9 60.6
514.8 359.4 60.6
516.8 353.7 60.6
520.8 352.4 60.7
514.7 344.1 60.6
516.7 340.9 60.6
514.7 336.5 60.6
518.7 332.5 60.7
512.3 278.9 60.4
514.3 277.9 60.5
512.3 273.9 60.4
514.3 270.3 60.5
512.3 266.3 60.4
510.2 262.3 60.4
514.2 255.0 60.5
512.2 251.1 60.4
510.1 244.7 60.3
510.1 242.2 60.3
512.1 241.0 60.4
514.1 239.7 60.4
512.1 230.8 60.4
510.0 224.6 60.3
512.0 220.7 60.4
509.0 213.9 60.3
509.9 212.0 60.3
511.9 205.5 60.3
513.9 204.1 60.4
513.9 201.5 60.4
509.9 196.9 60.3
513.8 191.4 60.4
508.8 186.3 60.2
508.8 181.3 60.2
509.7 174.3 60.3
511.7 167.6 60.3
506.6 160.4 60.2
508.6 156.2 60.2
508.6 148.7 60.2
508.6 146.2 60.2
506.5 143.0 60.1
509.5 141.5 60.2
508.5 138.7 60.2
509.5 136.5 60.2
511.5 134.7 60.3
509.5 131.5 60.2
508.5 128.6 60.2
515.5 128.3 60.4
509.4 123.9 60.2
508.4 121.1 60.2
508.4 118.6 60.2
508.4 116.1 60.2
511.4 114.4 60.2
508.4 111.1 60.2
506.3 108.1 60.1
508.3 106.1 60.1
506.3 103.1 60.1
506.3 100.6 60.1
504.3 97.6 60.0
511.3 96.7 60.2
509.2 91.2 60.2
509.2 88.7 60.1
506.2 85.6 60.1
506.2 83.1 60.1
511.2 81.5 60.2
508.2 78.5 60.1
508.1 76.0 60.1
508.1 73.5 60.1
508.1 71.0 60.1
513.1 69.1 60.2
529.1 68.7 60.6
541.1 67.5 60.9
551.1 66.0 61.2
576.1 65.9 61.8
1427.0 140.0 83.7
1433.9 131.1 83.8
1426.9 121.1 83.6
1465.6 65.7 84.6
1465.5 56.0 84.6
1465.5 46.3 84.5
1457.4 36.4 84.3
1465.3 26.8 84.5
1457.2 7.4 84.3
1465.2 -2.4 84.5
1465.1 -12.2 84.5
1465.1 -21.9 84.5
1464.9 -51.1 84.4
1464.8 -60.9 84.4
1464.8 -70.6 84.4
1464.7 -80.3 84.4
1464.7 -90.1 84.4
1464.6 -99.8 84.4
1464.5 -109.6 84.3
1464.5 -119.3 84.3
1456.4 -128.1 84.1
1464.3 -148.5 84.3
1464.2 -168.0 84.3
1456.1 -176.5 84.1
1448.1 -184.9 83.8
1456.0 -205.5 84.0
1463.9 -216.7 84.2
1470.8 -227.8 84.4
1463.7 -245.9 84.2
1463.7 -255.6 84.2
1463.6 -265.4 84.1
1447.6 -271.4 83.7
1463.5 -284.8 84.1
1463.3 -314.1 84.1
1455.2 -331.3 83.9
1455.2 -341.0 83.8
1455.1 -350.7 83.8
1463.0 -362.7 84.0
1463.0 -372.5 84.0
1454.9 -379.7 83.8
1462.9 -392.0 84.0
1469.8 -404.0 84.2
1469.7 -413.8 84.1
1469.7 -423.6 84.1
1462.6 -430.9 83.9
1469.6 -443.2 84.1
1469.5 -453.0 84.1
1462.5 -460.1 83.9
1474.6 -948.5 83.7
1396.6 -946.0 81.7
1334.6 -941.0 80.1
1310.6 -938.4 79.5
1271.5 -955.4 78.5
1240.5 -944.1 77.7
1201.4 -955.6 76.7
1185.4 -955.7 76.3
1170.4 -956.4 75.9
1150.5 -944.2 75.4
1150.4 -951.6 75.4
1142.4 -951.0 75.2
1130.4 -953.5 74.9
1127.4 -957.7 74.8
1095.4 -952.9 74.0
1068.4 -944.8 73.3
1068.4 -951.6 73.3
1052.3 -954.2 72.9
1041.3 -955.2 72.6
1037.3 -957.3 72.5
966.3 -955.2 70.7
514.9 372.1 58.1
516.8 364.0 58.1
516.8 361.4 58.1
512.8 354.9 58.0
514.7 351.8 58.0
516.7 346.0 58.1
516.7 340.9 58.1
514.6 328.8 58.0
514.5 318.7 58.0
510.5 307.6 57.9
516.5 310.2 58.0
518.5 309.3 58.1
509.4 291.7 57.9
510.3 277.4 57.9
514.3 275.4 57.9
512.3 271.3 57.9
512.2 266.3 57.9
510.2 262.3 57.9
512.2 258.7 57.9
509.1 246.5 57.8
510.1 244.7 57.8
510.1 242.2 57.8
512.1 241.0 57.9
516.1 241.0 57.9
510.0 232.1 57.8
509.0 221.5 57.8
516.0 220.5 57.9
513.9 214.3 57.9
508.9 203.9 57.8
506.8 195.3 57.7
504.8 191.8 57.7
509.8 191.9 57.8
513.8 188.8 57.8
509.7 179.3 57.7
511.7 177.7 57.8
509.7 174.3 57.7
511.6 162.5 57.8
508.6 156.2 57.7
509.6 154.1 57.7
506.5 148.0 57.7
509.5 144.1 57.7
511.5 142.3 57.7
509.5 136.5 57.7
508.5 133.7 57.7
511.4 132.1 57.7
509.4 129.0 57.7
508.4 123.6 57.7
509.4 121.4 57.7
508.4 118.6 57.7
509.3 116.4 57.7
509.3 113.9 57.7
506.3 110.6 57.6
509.3 108.8 57.7
511.3 106.8 57.7
511.3 104.3 57.7
508.3 101.1 57.6
500.2 96.7 57.5
508.2 96.0 57.6
508.2 93.5 57.6
509.2 91.2 57.6
506.2 88.1 57.6
509.2 86.2 57.6
506.2 83.1 57.6
509.1 81.2 57.6
506.1 78.1 57.6
509.1 73.6 57.6
506.1 70.7 57.6
513.1 69.2 57.7
527.1 68.5 57.9
541.1 67.5 58.2
545.1 65.3 58.3
586.1 67.0 59.0
593.1 64.6 59.1
1433.9 140.6 74.3
1426.8 130.5 74.2
1441.8 122.3 74.5
1426.7 111.6 74.2
1457.4 65.5 74.7
1465.4 56.0 74.8
1457.3 46.1 74.7
1465.3 36.5 74.8
1465.2 26.8 74.8
1472.1 17.0 74.9
1457.1 7.4 74.6
1457.0 -2.3 74.6
1465.0 -12.2 74.7
1456.9 -21.6 74.6
1464.9 -31.6 74.7
1464.8 -41.4 74.7
1464.7 -51.1 74.7
1464.7 -60.9 74.7
1464.6 -70.6 74.7
1464.6 -80.3 74.6
1464.5 -90.1 74.6
1456.4 -108.7 74.5
1448.3 -127.1 74.3
1464.2 -148.5 74.6
1464.1 -158.2 74.5
1456.1 -166.8 74.4
1464.0 -177.7 74.5
1455.9 -186.1 74.4
1447.8 -204.1 74.2
1447.8 -213.7 74.2
1463.7 -226.4 74.5
1463.6 -236.1 74.4
1463.6 -245.9 74.4
1463.5 -255.6 74.4
1470.5 -266.9 74.5
1463.4 -275.1 74.4
1463.4 -284.8 74.4
1455.3 -302.3 74.2
1455.2 -312.0 74.2
1463.1 -323.8 74.3
1463.1 -333.5 74.3
1447.0 -348.3 74.0
1454.9 -360.3 74.1
1462.8 -372.5 74.3
1454.8 -379.7 74.1
1462.7 -391.9 74.3
1462.7 -401.7 74.2
1469.6 -413.8 74.4
1462.5 -430.9 74.2
1477.4 -446.0 74.5
1469.4 -452.9 74.3
1469.3 -462.7 74.3
1420.4 -946.0 72.8
1357.4 -951.0 71.7
1334.4 -949.8 71.3
1279.4 -945.7 70.3
1279.3 -954.1 70.3
1263.4 -948.3 70.0
1240.4 -944.0 69.6
1224.3 -953.5 69.3
1209.3 -955.3 69.0
1177.3 -948.0 68.5
1170.3 -956.4 68.3
1154.3 -948.2 68.1
1123.2 -960.8 67.5
1095.3 -952.9 67.0
1068.3 -944.8 66.5
1060.3 -942.9 66.4
1052.3 -954.2 66.2
1041.2 -955.2 66.0
1037.2 -957.3 65.9
1021.3 -952.0 65.7
1005.3 -946.3 65.4
1002.2 -955.4 65.3
962.2 -950.3 64.6
517.1 417.7 55.6
517.0 407.5 55.6
511.0 395.6 55.5
514.9 392.5 55.5
514.9 384.9 55.5
514.8 374.7 55.5
514.8 361.9 55.5
514.7 359.4 55.5
514.7 351.8 55.5
516.7 348.6 55.5
512.6 342.2 55.5
518.6 340.2 55.5
516.6 330.7 55.5
518.5 322.2 55.5
518.5 319.6 55.5
510.4 307.6 55.4
516.5 310.2 55.5
522.4 307.5 55.5
512.3 281.5 55.4
510.2 274.9 55.4
516.3 276.9 55.4
516.2 271.8 55.4
512.2 266.3 55.4
514.2 265.2 55.4
516.2 264.1 55.4
509.1 256.6 55.3
510.1 249.7 55.3
507.1 245.2 55.3
510.1 244.7 55.3
514.1 244.8 55.4
512.0 241.0 55.3
512.0 238.4 55.3
507.0 232.7 55.3
514.0 227.0 55.3
508.9 221.5 55.3
506.9 217.8 55.3
508.9 216.4 55.3
509.9 212.0 55.3
506.8 207.8 55.2
511.8 205.5 55.3
511.8 203.0 55.3
508.8 196.4 55.2
509.8 194.4 55.3
509.8 191.9 55.3
508.7 188.9 55.2
511.7 187.8 55.3
508.7 181.3 55.2
506.7 175.4 55.2
508.6 173.8 55.2
509.6 169.2 55.2
511.6 157.5 55.2
506.5 152.9 55.2
509.5 146.6 55.2
509.5 144.1 55.2
513.5 143.0 55.2
508.4 138.7 55.2
509.4 136.5 55.2
506.3 123.0 55.1
509.3 121.4 55.2
511.3 119.5 55.2
506.3 115.5 55.1
509.3 113.9 55.2
509.3 111.4 55.1
509.3 108.8 55.1
508.3 106.1 55.1
509.2 103.8 55.1
511.2 99.2 55.2
508.2 96.0 55.1
508.2 93.5 55.1
508.2 91.0 55.1
511.1 86.6 55.1
508.1 83.5 55.1
508.1 81.0 55.1
506.1 78.1 55.1
504.1 75.3 55.1
504.1 72.9 55.0
511.0 68.9 55.1
509.0 66.1 55.1
529.0 66.1 55.3
551.0 66.0 55.5
558.0 63.9 55.6
599.0 65.2 56.0
1426.7 140.0 64.8
1426.7 130.5 64.8
1441.6 122.3 64.9
1433.5 112.2 64.8
1465.3 65.8 65.1
1465.2 56.0 65.1
1457.2 46.1 65.0
1465.1 36.5 65.1
1457.1 26.8 65.0
1472.0 17.0 65.1
1456.9 7.4 64.9
1464.9 -2.4 65.0
1456.8 -11.9 64.9
1456.8 -21.6 64.9
1464.7 -41.4 65.0
1464.6 -51.1 64.9
1464.5 -60.8 64.9
1471.5 -71.1 65.0
1456.2 -118.4 64.8
1456.1 -128.1 64.8
1456.1 -137.7 64.8
1464.0 -148.5 64.8
1464.0 -158.2 64.8
1455.9 -166.8 64.7
1470.8 -178.8 64.9
1455.8 -186.1 64.7
1455.7 -195.8 64.7
1455.7 -205.5 64.7
1455.6 -215.2 64.7
1463.6 -226.4 64.7
1470.5 -237.5 64.8
1455.5 -244.2 64.6
1463.4 -255.6 64.7
1463.3 -265.3 64.7
1455.3 -273.2 64.6
1463.2 -284.8 64.7
1463.2 -294.6 64.6
1455.1 -302.3 64.5
1455.1 -311.9 64.5
1463.0 -323.8 64.6
1462.9 -333.5 64.6
1462.9 -343.2 64.6
1454.8 -350.7 64.5
1462.8 -362.7 64.6
1462.7 -372.5 64.5
1462.6 -391.9 64.5
1462.5 -401.7 64.5
1462.5 -411.4 64.5
1462.4 -421.1 64.5
1462.4 -430.9 64.5
1477.3 -446.0 64.6
1469.2 -452.9 64.5
1462.2 -460.1 64.4
1459.3 -947.0 63.8
1326.2 -951.8 62.4
1279.3 -945.7 61.9
1271.3 -947.1 61.8
1232.3 -944.8 61.4
1224.2 -953.5 61.3
1193.2 -948.0 61.0
1177.2 -948.0 60.9
1170.2 -956.4 60.8
1150.2 -944.2 60.6
1142.2 -943.7 60.5
1138.2 -947.0 60.5
1134.2 -957.6 60.4
1123.1 -960.8 60.3
1091.2 -955.6 60.0
1068.2 -944.8 59.7
1002.1 -955.4 59.0
966.1 -955.2 58.6
516.9 387.0 53.0
514.7 351.8 52.9
516.6 348.6 53.0
512.6 342.2 52.9
518.6 340.2 52.9
512.5 332.1 52.9
516.5 330.7 52.9
516.5 320.4 52.9
516.4 312.7 52.9
516.4 307.6 52.9
509.3 291.7 52.9
509.3 284.2 52.8
509.2 279.1 52.8
512.2 276.4 52.8
512.2 273.9 52.8
514.2 272.8 52.8
512.2 266.3 52.8
516.1 264.1 52.8
512.1 251.1 52.8
510.0 244.7 52.8
509.0 239.0 52.8
505.0 231.4 52.8
515.9 225.7 52.8
513.9 216.8 52.8
515.9 215.4 52.8
504.8 206.7 52.7
511.8 205.5 52.8
508.8 201.4 52.7
508.7 196.4 52.7
508.7 188.9 52.7
508.7 186.3 52.7
509.6 179.3 52.7
508.6 176.3 52.7
511.6 165.1 52.7
508.5 161.3 52.7
509.5 149.1 52.7
506.3 125.5 52.6
506.3 118.0 52.6
508.3 113.6 52.6
511.2 111.9 52.6
511.2 109.4 52.6
508.2 106.1 52.6
509.2 98.8 52.6
508.2 96.1 52.6
509.1 91.2 52.6
506.1 85.6 52.6
508.1 83.5 52.6
508.1 78.5 52.6
509.0 76.1 52.6
511.0 73.9 52.6
515.0 69.4 52.6
521.0 67.7 52.6
533.0 66.6 52.6
552.0 66.1 52.7
566.0 64.8 52.7
584.0 63.7 52.8
1433.6 140.7 55.4
1433.5 131.2 55.4
1426.5 121.1 55.3
1426.4 111.7 55.3
1457.1 55.8 55.3
1457.0 46.1 55.3
1465.0 36.6 55.3
1464.9 26.8 55.3
1456.8 7.4 55.3
1464.7 -12.1 55.3
1456.6 -21.6 55.2
1456.5 -41.0 55.2
1464.4 -51.1 55.2
1464.4 -60.8 55.2
1464.3 -80.3 55.2
1464.2 -90.0 55.2
1456.2 -99.0 55.1
1456.1 -118.4 55.1
1456.0 -128.1 55.1
1463.9 -138.7 55.1
1463.9 -148.5 55.1
1463.8 -158.2 55.1
1455.8 -166.8 55.0
1470.7 -178.8 55.1
1463.6 -187.4 55.0
1455.6 -195.8 55.0
1455.5 -205.5 55.0
1455.5 -215.2 55.0
1463.4 -226.4 55.0
1463.4 -236.1 55.0
1463.3 -245.8 55.0
1463.2 -255.6 55.0
1455.2 -263.5 54.9
1463.1 -284.8 54.9
1463.0 -294.5 54.9
1455.0 -302.3 54.9
1462.8 -333.5 54.9
1454.7 -341.0 54.8
1469.7 -355.0 54.8
1454.6 -360.3 54.8
1462.6 -372.4 54.8
1454.5 -379.7 54.8
1454.5 -389.4 54.8
1469.4 -404.0 54.8
1462.3 -411.4 54.8
1469.3 -423.5 54.8
1454.2 -428.1 54.7
1469.1 -452.9 54.7
1462.0 -460.1 54.7
1388.1 -948.8 53.9
1380.1 -951.6 53.8
1357.1 -951.0 53.8
1326.2 -943.1 53.7
1318.2 -945.1 53.7
1302.1 -957.2 53.6
1216.1 -946.1 53.4
1201.1 -947.8 53.3
1201.1 -955.5 53.3
1177.1 -948.0 53.3
1162.1 -948.5 53.2
1154.1 -948.1 53.2
1146.1 -947.6 53.2
1138.1 -947.0 53.1
1123.1 -946.4 53.1
1119.1 -956.7 53.1
1095.0 -959.9 53.0
1072.1 -949.1 53.0
1060.1 -942.9 52.9
1048.1 -949.8 52.9
1037.1 -950.7 52.8
1029.1 -948.2 52.8
1017.1 -947.4 52.8
1002.0 -955.4 52.7
998.0 -963.2 52.7
966.0 -955.2 52.6
519.0 420.1 50.5
510.9 403.2 50.5
517.0 407.5 50.5
514.9 392.5 50.5
514.8 384.9 50.4
512.7 372.6 50.4
518.7 363.4 50.4
514.7 356.9 50.4
516.6 353.7 50.4
514.6 344.1 50.4
512.5 334.6 50.4
512.5 332.1 50.4
514.5 328.9 50.4
512.4 319.4 50.4
514.4 318.7 50.4
516.4 317.9 50.4
512.4 309.3 50.4
512.2 286.5 50.3
512.2 281.5 50.3
516.2 279.5 50.3
510.2 272.4 50.3
514.1 267.7 50.3
510.1 262.3 50.3
509.1 256.6 50.3
512.0 251.1 50.3
514.0 249.9 50.3
510.0 239.7 50.3
509.9 234.6 50.3
509.9 227.1 50.3
511.9 225.8 50.3
509.9 222.1 50.3
509.8 217.0 50.3
511.8 215.7 50.2
517.8 216.6 50.2
509.8 209.5 50.2
506.8 205.3 50.3
511.8 205.5 50.2
508.7 196.4 50.2
511.7 195.4 50.2
506.7 190.3 50.2
509.7 189.4 50.2
508.6 186.3 50.2
506.6 180.4 50.2
509.6 179.3 50.2
508.6 176.3 50.2
509.6 174.3 50.2
508.6 171.3 50.2
509.5 169.2 50.2
513.5 165.9 50.2
508.5 161.3 50.2
506.5 157.9 50.2
509.5 156.7 50.2
508.5 153.7 50.2
511.4 149.9 50.2
508.4 143.7 50.2
508.4 141.2 50.2
509.4 136.5 50.2
511.3 134.7 50.1
508.3 126.2 50.1
508.3 121.1 50.1
511.3 119.5 50.1
508.2 116.1 50.1
509.2 111.4 50.1
506.1 98.1 50.1
508.1 96.1 50.1
508.1 93.5 50.1
513.1 92.1 50.1
508.1 88.5 50.1
506.1 85.6 50.1
504.0 82.8 50.1
506.0 78.2 50.1
504.0 75.3 50.1
521.0 67.7 50.0
534.9 66.8 49.9
548.9 65.7 49.9
565.9 64.8 49.8
581.9 63.5 49.7
1441.4 141.4 45.8
1433.4 131.2 45.9
1426.3 121.1 45.9
1426.3 111.7 45.9
1464.9 56.0 45.6
1464.9 46.3 45.6
1456.8 36.5 45.6
1456.8 26.8 45.6
1456.6 7.4 45.6
1456.6 -2.2 45.6
1456.5 -21.6 45.6
1456.4 -40.9 45.5
1464.2 -60.8 45.5
1464.2 -70.5 45.5
1464.1 -80.3 45.4
1456.1 -89.3 45.5
1456.0 -99.0 45.5
1455.9 -118.4 45.4
1463.8 -129.0 45.4
1463.8 -138.7 45.4
1463.7 -148.5 45.4
1463.7 -158.2 45.3
1463.6 -167.9 45.3
1455.5 -186.1 45.3
1463.4 -197.1 45.3
1463.4 -206.9 45.3
1463.3 -216.6 45.3
1455.3 -224.8 45.3
1463.2 -236.1 45.2
1455.2 -244.2 45.3
1463.1 -255.6 45.2
1463.0 -265.3 45.2
1462.9 -284.8 45.2
1462.9 -294.5 45.2
1454.8 -302.2 45.2
1462.6 -333.5 45.1
1454.5 -350.6 45.1
1462.5 -362.7 45.1
1462.4 -372.4 45.1
1454.4 -379.7 45.1
1462.3 -391.9 45.0
1469.2 -403.9 45.0
1462.2 -411.4 45.0
1469.1 -423.5 45.0
1469.1 -433.3 45.0
1462.0 -440.6 45.0
1462.0 -450.3 45.0
1468.9 -462.7 44.9
1568.0 -955.0 43.8
1451.1 -941.0 44.4
1443.0 -944.6 44.4
1380.0 -942.4 44.7
1326.0 -943.1 45.0
1295.0 -951.2 45.1
1271.1 -938.7 45.2
1271.0 -947.0 45.2
1248.0 -951.2 45.3
1224.0 -953.5 45.4
1201.0 -947.7 45.5
1201.0 -955.5 45.5
1177.0 -948.0 45.7
1166.0 -952.4 45.7
1158.0 -952.1 45.7
1060.0 -942.9 46.2
1048.0 -949.7 46.3
1033.0 -952.7 46.3
1021.0 -952.0 46.4
998.0 -950.7 46.5
962.0 -950.3 46.6
519.0 420.1 47.9
510.9 403.2 48.0
516.9 407.5 47.9
516.8 394.7 47.9
516.8 387.0 47.9
516.7 376.8 47.9
510.2 292.5 47.8
509.2 284.2 47.8
507.2 280.1 47.9
514.2 283.0 47.8
512.1 266.3 47.8
514.1 262.7 47.7
509.0 251.6 47.8
512.0 248.6 47.8
506.9 240.2 47.8
509.9 239.7 47.8
513.9 239.7 47.7
511.8 225.8 47.7
511.8 223.3 47.7
511.8 218.2 47.7
513.8 216.8 47.7
511.8 213.1 47.7
508.7 208.9 47.7
511.7 205.6 47.7
509.7 196.9 47.7
508.7 193.9 47.7
513.6 191.4 47.7
508.6 186.4 47.7
504.6 181.9 47.8
511.6 182.8 47.7
508.6 176.3 47.7
509.5 171.8 47.7
511.5 170.1 47.7
509.5 166.7 47.7
506.5 160.4 47.7
513.4 158.3 47.6
504.4 152.2 47.7
509.4 146.6 47.6
511.4 144.8 47.6
509.3 141.6 47.6
508.3 138.7 47.7
509.3 136.5 47.6
511.3 134.7 47.6
508.3 131.2 47.6
513.3 130.3 47.6
508.3 126.2 47.6
502.2 121.8 47.7
506.2 120.5 47.7
511.2 114.4 47.6
509.1 106.3 47.6
509.1 103.8 47.6
506.1 98.1 47.6
508.1 96.1 47.6
504.0 87.7 47.6
508.0 83.5 47.6
509.0 81.2 47.6
504.0 77.8 47.6
508.0 76.0 47.6
505.9 73.2 47.6
503.9 70.4 47.6
516.9 69.7 47.5
522.9 67.9 47.4
532.9 66.6 47.3
542.9 65.0 47.1
567.9 65.0 46.8
594.9 64.8 46.5
1426.3 140.0 36.5
1433.2 131.2 36.4
1418.2 120.5 36.5
1418.1 111.1 36.5
1456.8 55.8 36.0
1464.7 46.3 35.9
1464.7 36.6 35.9
1471.6 26.9 35.8
1464.6 17.1 35.8
1464.5 7.4 35.8
1456.4 -2.2 35.9
1456.4 -11.9 35.9
1456.2 -40.9 35.9
1456.2 -50.6 35.8
1456.1 -60.3 35.8
1456.0 -70.0 35.8
1456.0 -79.6 35.8
1463.9 -90.0 35.7
1455.9 -99.0 35.8
1455.8 -118.3 35.8
1455.7 -128.0 35.7
1463.6 -138.7 35.6
1463.6 -148.4 35.6
1455.5 -157.1 35.7
1463.5 -167.9 35.6
1470.4 -178.7 35.5
1455.4 -186.1 35.7
1463.3 -197.1 35.6
1463.2 -206.9 35.5
1455.2 -215.1 35.6
1463.1 -226.3 35.5
1463.1 -236.1 35.5
1455.0 -244.2 35.6
1455.0 -253.8 35.6
1462.9 -265.3 35.5
1462.8 -284.8 35.4
1454.7 -292.5 35.5
1454.7 -302.2 35.5
1462.6 -323.7 35.4
1454.5 -331.3 35.5
1454.4 -350.6 35.5
1462.3 -362.7 35.4
1462.3 -372.4 35.3
1454.2 -379.6 35.4
1462.2 -391.9 35.3
1462.1 -401.6 35.3
1462.0 -411.4 35.3
1462.0 -421.1 35.3
1461.9 -430.8 35.3
1461.8 -450.3 35.2
1476.7 -465.7 35.0
1442.9 -934.9 34.8
1419.9 -946.0 35.1
1387.9 -948.8 35.5
1372.9 -945.9 35.7
1356.9 -951.0 35.9
1325.9 -943.0 36.2
1294.9 -951.2 36.6
1270.9 -938.7 36.9
1239.9 -944.0 37.3
1231.9 -944.8 37.4
1223.9 -953.4 37.5
1200.8 -955.5 37.7
1176.9 -948.0 38.0
1165.9 -952.4 38.2
1157.9 -952.1 38.3
1149.9 -951.6 38.4
1133.9 -943.0 38.6
1129.9 -953.5 38.6
1118.8 -956.6 38.7
1086.9 -951.3 39.1
1063.9 -940.4 39.4
1059.9 -942.9 39.5
1047.9 -949.7 39.6
1040.9 -955.2 39.7
1028.9 -948.2 39.9
1020.9 -952.0 39.9
997.9 -950.7 40.2
521.0 419.8 45.3
510.9 403.2 45.5
516.9 407.5 45.3
518.8 396.9 45.3
516.8 387.0 45.3
516.7 376.8 45.3
516.7 371.7 45.3
514.6 359.4 45.3
514.6 356.9 45.3
514.5 351.8 45.3
520.6 352.5 45.2
514.5 344.1 45.3
514.5 336.5 45.3
518.4 332.5 45.2
512.3 316.9 45.3
516.3 317.9 45.2
516.3 312.8 45.2
516.3 307.6 45.2
509.2 291.7 45.3
512.2 286.5 45.3
507.1 280.1 45.4
507.1 277.6 45.4
514.1 277.9 45.2
510.1 272.4 45.3
516.1 269.2 45.2
516.0 261.5 45.2
508.8 226.5 45.3
509.8 222.1 45.2
513.8 219.4 45.1
511.7 215.7 45.2
511.7 213.1 45.2
508.7 208.9 45.2
509.7 201.9 45.2
508.6 196.4 45.2
511.6 195.4 45.2
509.6 189.4 45.2
506.6 185.4 45.2
506.5 180.4 45.2
511.5 180.2 45.1
511.5 177.7 45.1
509.5 174.3 45.2
508.5 171.3 45.2
509.5 169.2 45.2
511.5 167.6 45.1
509.4 161.7 45.2
511.4 157.5 45.1
509.4 154.1 45.1
508.4 151.2 45.2
504.3 147.2 45.2
508.3 146.2 45.2
506.3 140.5 45.2
509.3 139.1 45.1
511.3 134.7 45.1
513.2 130.3 45.0
511.2 127.1 45.1
508.2 123.7 45.1
504.2 119.9 45.2
509.1 113.9 45.1
508.1 106.1 45.1
511.1 104.3 45.0
506.1 100.6 45.1
508.1 98.6 45.1
504.0 95.2 45.2
508.0 93.6 45.1
506.0 88.1 45.1
509.0 81.2 45.1
508.9 78.7 45.0
505.9 75.7 45.1
510.9 74.0 45.0
514.9 69.4 44.9
522.9 67.9 44.8
532.9 66.6 44.6
550.9 66.0 44.2
565.8 64.8 43.9
575.8 62.9 43.7
1433.2 140.7 26.9
1426.1 130.6 27.0
1418.0 120.5 27.2
1456.6 55.9 26.3
1456.6 46.2 26.3
1464.5 36.6 26.1
1471.5 26.9 26.0
1464.4 17.1 26.1
1456.4 7.5 26.2
1464.3 -2.4 26.1
1464.2 -12.1 26.1
1464.2 -21.8 26.0
1464.1 -31.6 26.0
1471.1 -41.7 25.9
1464.0 -51.0 26.0
1464.0 -60.8 26.0
1455.9 -69.9 26.1
1463.8 -80.3 26.0
1463.8 -90.0 26.0
1455.7 -99.0 26.1
1447.7 -107.8 26.3
1455.6 -118.3 26.1
1447.6 -127.1 26.2
1463.5 -138.7 25.9
1455.4 -147.4 26.0
1463.4 -158.2 25.9
1455.3 -166.7 26.0
1463.3 -177.6 25.8
1463.2 -187.4 25.8
1455.2 -195.8 26.0
1463.1 -206.9 25.8
1463.0 -216.6 25.8
1455.0 -224.8 25.9
1462.9 -236.1 25.8
1454.9 -244.1 25.9
1462.8 -255.5 25.8
1454.8 -263.5 25.9
1462.6 -284.8 25.7
1462.6 -294.5 25.7
1462.5 -304.2 25.7
1462.4 -333.5 25.7
1462.2 -352.9 25.6
1454.2 -360.3 25.8
1454.1 -370.0 25.8
1462.1 -382.1 25.6
1462.0 -391.9 25.6
1461.9 -401.6 25.6
1461.9 -411.4 25.6
1468.8 -423.5 25.4
1461.8 -430.8 25.5
1461.7 -450.3 25.5
1468.6 -462.7 25.4
1294.7 -951.2 28.1
1270.8 -938.7 28.6
1270.8 -947.0 28.6
1239.8 -944.0 29.2
1231.8 -944.8 29.4
1215.8 -946.0 29.7
1200.8 -947.7 30.0
1200.7 -955.5 30.0
1184.7 -955.7 30.3
1157.8 -944.6 30.8
1149.8 -944.2 31.0
1145.8 -947.6 31.1
1141.8 -951.0 31.1
1126.8 -950.4 31.4
1118.7 -956.6 31.6
1094.7 -959.8 32.0
1075.8 -953.3 32.4
1063.8 -947.2 32.7
1044.8 -946.4 33.1
1040.8 -955.1 33.1
1020.8 -952.0 33.5
1004.8 -946.3 33.8
997.8 -950.7 34.0
965.8 -955.2 34.6
522.9 422.2 42.6
512.8 405.5 42.9
516.8 407.5 42.8
514.8 392.5 42.8
516.7 387.0 42.8
514.6 374.7 42.8
520.7 375.8 42.6
516.4 330.7 42.7
514.3 318.7 42.7
514.3 311.0 42.7
518.3 309.3 42.6
509.2 291.7 42.8
510.1 282.5 42.8
514.1 283.0 42.7
514.1 275.4 42.7
516.1 274.3 42.6
516.0 271.8 42.6
514.0 267.8 42.7
516.0 266.7 42.6
509.0 256.6 42.8
513.9 249.9 42.6
511.9 246.1 42.7
509.9 239.7 42.7
509.8 224.6 42.7
513.8 224.5 42.6
509.7 217.0 42.7
511.7 215.7 42.7
508.6 196.4 42.7
511.6 195.4 42.6
504.6 189.3 42.8
509.6 189.4 42.7
508.5 186.4 42.7
506.5 180.4 42.7
500.5 175.1 42.9
508.5 176.3 42.7
509.5 171.8 42.7
509.4 169.2 42.6
511.4 167.6 42.6
508.4 163.8 42.7
508.3 153.8 42.7
508.3 151.2 42.7
506.3 145.5 42.7
509.3 144.1 42.6
509.3 141.6 42.6
508.2 131.2 42.6
508.2 128.7 42.6
509.2 121.4 42.6
513.1 117.5 42.5
511.1 114.4 42.5
513.1 112.5 42.5
508.0 103.6 42.6
506.0 100.6 42.6
508.0 98.6 42.6
508.0 96.1 42.6
511.0 94.2 42.5
505.9 85.6 42.6
507.9 78.5 42.6
507.9 76.0 42.6
508.9 73.6 42.5
507.9 71.0 42.6
518.8 70.0 42.2
528.8 68.7 42.0
548.8 68.6 41.4
553.8 66.3 41.3
571.8 65.4 40.8
579.8 63.3 40.6
600.8 62.2 40.0
1426.0 130.6 17.6
1409.9 119.9 18.0
1464.5 56.1 16.4
1456.4 46.2 16.6
1464.4 36.6 16.4
1464.3 26.9 16.4
1464.3 17.1 16.4
1456.2 7.5 16.6
1464.2 -2.3 16.3
1464.1 -12.1 16.3
1464.0 -21.8 16.3
1456.0 -31.2 16.5
1463.9 -41.3 16.3
1463.9 -51.0 16.3
1470.8 -61.2 16.1
1463.8 -70.5 16.2
1463.7 -80.2 16.2
1463.6 -90.0 16.2
1463.6 -99.7 16.2
1455.5 -108.6 16.4
1455.5 -118.3 16.4
1455.4 -128.0 16.4
1463.4 -138.7 16.2
1455.3 -147.4 16.4
1455.2 -157.0 16.4
1447.2 -165.5 16.6
1470.1 -178.7 15.9
1463.1 -187.4 16.1
1463.0 -197.1 16.1
1463.0 -206.8 16.1
1454.9 -215.1 16.3
1454.8 -224.8 16.3
1454.8 -234.5 16.3
1462.7 -245.8 16.0
1454.7 -253.8 16.2
1454.6 -263.5 16.2
1462.5 -284.7 16.0
1469.4 -296.2 15.8
1454.4 -302.2 16.2
1462.2 -333.4 15.9
1454.1 -350.6 16.1
1454.1 -360.3 16.1
1462.0 -372.4 15.9
1453.9 -379.6 16.1
1461.9 -391.9 15.8
1453.8 -399.0 16.1
1461.7 -411.3 15.8
1468.7 -423.5 15.6
1461.6 -430.8 15.8
1461.6 -440.6 15.8
1461.5 -450.3 15.8
1461.5 -460.0 15.8
1403.7 -933.6 16.7
1395.6 -945.9 16.9
1387.6 -948.8 17.1
1348.6 -944.4 18.1
1333.6 -949.7 18.6
1317.6 -945.0 19.0
1278.6 -945.7 20.1
1278.6 -954.1 20.0
1239.7 -944.0 21.1
1231.7 -944.8 21.3
1223.6 -953.4 21.5
1200.7 -947.7 22.2
1200.6 -955.5 22.2
1176.7 -948.0 22.8
1161.7 -948.5 23.2
1145.7 -940.2 23.7
1145.7 -947.6 23.7
1129.6 -953.5 24.1
1118.6 -956.6 24.4
1090.6 -955.6 25.2
518.7 396.9 40.1
510.7 385.6 40.4
516.7 387.0 40.2
514.6 374.7 40.3
518.6 373.7 40.1
516.5 361.4 40.2
516.5 353.7 40.2
516.4 346.1 40.1
516.4 338.4 40.1
516.3 330.7 40.1
514.3 318.7 40.2
520.3 321.4 40.0
512.2 309.3 40.2
516.2 307.6 40.1
509.0 279.2 40.3
516.0 266.7 40.0
516.0 264.1 40.0
511.9 258.7 40.2
511.9 251.1 40.2
508.8 244.1 40.3
509.8 239.7 40.2
515.8 241.0 40.0
508.8 234.0 40.2
506.7 227.8 40.3
509.7 224.6 40.2
509.7 222.1 40.2
508.7 216.5 40.2
511.7 213.2 40.1
506.6 207.8 40.3
506.6 205.3 40.3
509.6 202.0 40.2
511.6 200.5 40.1
509.5 194.4 40.2
509.5 189.4 40.2
506.5 185.4 40.3
508.4 168.8 40.2
509.4 166.7 40.1
508.4 163.8 40.2
504.3 159.6 40.3
508.3 153.8 40.1
508.3 151.2 40.1
509.3 149.1 40.1
509.3 146.6 40.1
509.3 144.1 40.1
504.2 139.8 40.3
513.2 137.9 40.0
508.2 133.7 40.1
508.2 131.2 40.1
508.2 128.7 40.1
506.1 125.5 40.2
508.1 123.7 40.1
506.1 120.6 40.2
511.1 119.5 40.0
506.1 115.6 40.2
513.1 115.0 39.9
511.1 111.9 40.0
509.0 106.4 40.1
508.0 98.6 40.1
508.0 96.1 40.1
508.0 93.6 40.1
512.9 92.1 39.9
507.9 88.5 40.1
503.9 85.3 40.2
507.9 78.5 40.1
503.8 75.4 40.2
505.8 70.7 40.1
512.8 69.2 39.9
528.8 68.7 39.3
542.8 67.8 38.8
571.8 65.5 37.8
594.8 64.8 37.0
1176.5 -948.0 15.2
1157.6 -944.6 15.9
1145.6 -940.2 16.3
1137.6 -939.6 16.6
1126.6 -950.4 17.0
1110.6 -948.4 17.5
1110.5 -955.5 17.5
1094.6 -952.8 18.1
1067.6 -944.7 19.0
1051.6 -954.1 19.6
1047.5 -963.0 19.7
1040.5 -961.7 20.0
1024.6 -956.6 20.5
1001.6 -955.4 21.3
973.5 -965.0 22.3
510.7 403.2 37.9
512.7 403.0 37.8
514.7 392.5 37.7
518.7 389.2 37.6
514.6 374.7 37.7
520.3 334.3 37.4
516.3 320.4 37.6
514.2 311.0 37.6
518.2 309.3 37.5
510.0 279.9 37.8
512.0 276.4 37.7
516.0 276.9 37.5
508.9 264.1 37.8
508.8 246.6 37.8
509.8 239.7 37.7
511.8 238.5 37.6
511.8 235.9 37.6
506.7 225.3 37.8
511.7 225.8 37.6
508.7 221.5 37.7
513.6 216.8 37.5
509.6 212.0 37.7
506.6 207.8 37.8
509.6 204.5 37.7
509.6 202.0 37.7
508.5 196.4 37.7
511.5 195.4 37.6
509.5 189.4 37.6
506.5 185.4 37.8
511.4 182.8 37.5
511.4 177.7 37.5
509.4 174.3 37.6
508.4 168.8 37.7
504.3 157.1 37.8
509.3 154.2 37.6
509.3 151.6 37.6
508.2 146.2 37.6
508.2 143.7 37.6
508.2 141.2 37.6
509.2 139.1 37.6
508.2 136.2 37.6
506.1 130.5 37.7
506.1 125.5 37.7
506.1 123.0 37.7
509.1 121.5 37.6
513.1 120.1 37.4
508.0 116.1 37.6
509.0 113.9 37.5
511.0 111.9 37.5
509.0 108.9 37.5
509.0 106.4 37.5
511.0 101.8 37.4
510.9 99.3 37.4
505.9 93.1 37.6
508.9 91.3 37.5
507.9 88.5 37.6
508.9 86.2 37.5
505.9 83.2 37.6
508.8 81.2 37.5
508.8 73.7 37.5
505.8 70.7 37.6
522.8 70.6 36.9
528.8 68.7 36.6
530.7 66.3 36.6
565.7 67.7 35.1
575.7 65.9 34.6
598.7 65.2 33.7
618.7 63.9 32.8
516.7 394.7 35.1
514.6 384.9 35.2
512.5 372.6 35.3
522.5 377.9 34.8
520.5 368.0 34.9
518.5 363.4 34.9
516.4 353.7 35.0
518.4 348.0 34.9
512.3 339.7 35.2
518.3 340.2 34.9
512.3 332.1 35.2
516.3 330.7 35.0
516.1 307.6 35.0
510.1 292.5 35.3
509.0 284.2 35.3
510.0 279.9 35.2
515.9 274.3 34.9
515.9 271.8 34.9
513.9 267.8 35.0
511.9 263.8 35.1
515.9 264.1 34.9
506.8 255.2 35.4
511.8 251.1 35.1
508.8 246.6 35.2
509.7 239.7 35.2
513.7 239.8 35.0
509.6 222.1 35.2
513.6 219.4 35.0
511.5 205.6 35.0
509.5 202.0 35.1
511.5 198.0 35.0
508.5 193.9 35.2
506.4 185.4 35.3
509.4 181.8 35.1
509.4 179.3 35.1
513.4 178.7 34.9
509.3 161.7 35.1
506.2 155.5 35.2
504.2 152.2 35.3
508.2 148.7 35.1
508.2 146.2 35.1
508.2 141.2 35.1
508.1 136.2 35.1
511.1 134.7 35.0
508.1 131.2 35.1
509.1 124.0 35.0
511.0 122.1 34.9
511.0 119.5 34.9
509.0 116.4 35.0
509.0 113.9 35.0
508.0 111.1 35.1
502.0 107.1 35.4
508.0 106.1 35.1
507.9 101.1 35.1
508.9 98.8 35.0
503.9 95.2 35.3
508.9 93.8 35.0
507.9 91.1 35.1
508.9 88.7 35.0
512.8 87.0 34.8
507.8 83.5 35.0
507.8 76.0 35.0
507.8 73.5 35.0
503.7 70.4 35.2
522.7 70.6 34.3
544.7 68.1 33.2
561.7 67.3 32.3
581.7 66.6 31.3
602.7 65.6 30.3
616.6 63.7 29.6
516.7 417.8 32.6
518.7 409.8 32.4
516.6 394.7 32.5
518.6 389.2 32.4
516.5 376.8 32.5
516.3 346.1 32.5
516.3 338.4 32.5
516.2 330.7 32.4
518.2 322.2 32.3
514.1 311.1 32.5
512.1 306.8 32.6
509.0 291.7 32.8
514.0 293.2 32.5
511.9 273.9 32.6
511.9 271.4 32.6
509.9 264.9 32.7
511.8 263.8 32.6
511.8 251.1 32.6
509.7 247.2 32.7
506.7 232.8 32.8
515.7 235.9 32.3
511.6 230.9 32.6
509.6 227.1 32.7
508.6 221.5 32.7
509.5 202.0 32.6
509.5 199.4 32.6
511.5 198.0 32.5
511.4 187.9 32.5
513.3 176.1 32.4
508.3 166.3 32.6
508.2 161.3 32.6
504.2 157.1 32.9
509.2 156.7 32.6
509.2 154.2 32.6
504.2 147.2 32.8
511.1 137.2 32.4
509.1 131.5 32.5
509.1 129.0 32.5
508.0 123.7 32.6
509.0 121.5 32.5
504.0 117.5 32.8
515.0 113.0 32.2
508.9 106.4 32.5
507.9 103.6 32.6
505.9 100.6 32.7
507.9 98.6 32.6
510.9 96.7 32.4
505.8 93.1 32.7
508.8 88.8 32.5
508.8 83.7 32.5
508.8 81.2 32.5
508.8 78.7 32.5
505.7 75.7 32.6
507.7 73.5 32.5
507.7 71.0 32.5
522.7 70.6 31.7
534.7 69.5 31.0
544.7 68.1 30.4
551.6 66.1 30.0
577.6 66.1 28.5
624.6 64.5 25.8
512.7 413.1 30.3
514.5 384.9 30.1
514.5 374.7 30.1
512.4 370.1 30.2
520.4 365.4 29.7
512.3 354.9 30.2
514.3 351.8 30.0
512.3 342.2 30.2
518.3 340.2 29.8
514.1 318.7 30.0
514.1 313.6 30.0
510.1 307.6 30.2
512.1 306.8 30.1
516.1 307.7 29.9
510.0 290.0 30.2
508.9 284.2 30.3
509.9 280.0 30.2
509.9 277.4 30.2
515.9 274.4 29.8
511.8 266.3 30.1
515.8 259.0 29.8
509.7 249.8 30.2
508.7 246.6 30.2
509.7 244.7 30.2
511.7 241.0 30.0
509.6 234.7 30.2
511.6 233.4 30.0
508.6 229.0 30.2
513.6 227.0 29.9
511.6 220.8 30.0
509.5 214.5 30.1
509.5 212.0 30.1
509.5 207.0 30.1
508.4 201.4 30.2
509.4 194.4 30.1
508.4 191.4 30.2
509.3 181.8 30.1
506.3 175.4 30.3
508.2 166.3 30.1
509.2 161.7 30.1
511.2 160.0 29.9
508.2 156.3 30.1
509.2 154.2 30.1
506.1 148.0 30.2
506.1 145.5 30.2
506.1 140.5 30.2
508.1 136.2 30.1
509.0 131.5 30.0
508.0 128.7 30.1
511.0 127.1 29.9
509.0 124.0 30.0
513.0 122.7 29.8
510.9 114.5 29.9
505.9 105.6 30.2
507.9 103.6 30.1
505.8 100.6 30.2
507.8 98.6 30.0
508.8 96.3 30.0
508.8 88.8 30.0
503.8 85.3 30.3
508.7 83.7 30.0
507.7 81.0 30.0
507.7 78.5 30.0
510.7 71.4 29.8
534.6 69.6 28.3
567.6 71.0 26.1
571.6 68.5 25.8
594.6 68.0 24.3
510.6 403.2 27.9
514.6 405.3 27.6
514.5 392.5 27.5
516.5 387.0 27.4
514.4 374.7 27.5
514.4 372.2 27.5
516.3 353.8 27.4
510.2 337.8 27.8
518.2 342.8 27.2
514.0 311.1 27.4
509.9 290.0 27.7
511.9 289.1 27.6
511.9 286.6 27.6
511.9 281.5 27.6
511.8 276.4 27.5
511.8 273.9 27.5
509.8 269.9 27.7
515.8 271.8 27.3
511.8 266.3 27.5
511.8 263.8 27.5
513.8 262.7 27.4
511.7 251.1 27.5
513.6 239.8 27.4
517.6 237.2 27.1
513.6 232.1 27.3
513.5 224.5 27.3
511.5 220.8 27.5
511.5 215.7 27.5
511.5 213.2 27.5
508.4 206.4 27.7
508.4 203.9 27.7
504.4 199.3 28.0
509.4 199.5 27.6
509.4 194.4 27.6
509.3 191.9 27.6
509.3 189.4 27.6
508.3 181.4 27.6
509.3 176.8 27.6
504.2 167.1 27.9
509.2 166.7 27.6
508.2 163.8 27.6
513.2 163.4 27.3
511.2 160.0 27.4
509.1 154.2 27.5
508.1 146.2 27.6
513.1 145.6 27.2
509.1 141.6 27.5
508.0 136.2 27.6
511.0 134.7 27.4
511.0 132.2 27.4
508.0 126.2 27.6
514.9 123.3 27.1
505.9 115.6 27.7
510.9 114.5 27.3
503.9 110.1 27.8
507.9 108.6 27.6
510.8 106.9 27.3
507.8 103.6 27.5
505.8 100.6 27.7
507.8 98.6 27.5
507.8 93.6 27.5
505.8 90.7 27.7
503.7 85.3 27.8
507.7 83.5 27.5
512.7 81.9 27.2
507.7 78.5 27.5
503.6 72.9 27.8
514.6 72.0 27.0
532.6 69.3 25.7
563.6 70.5 23.4
575.6 68.9 22.6
514.6 405.3 25.0
520.6 409.5 24.5
520.4 386.2 24.5
516.3 353.8 24.8
518.2 350.6 24.6
514.2 341.6 24.9
514.1 326.3 24.9
516.1 320.5 24.8
518.1 319.6 24.6
512.0 309.3 25.1
512.0 306.8 25.1
509.9 300.1 25.2
511.9 291.6 25.0
508.9 284.2 25.3
515.8 276.9 24.7
511.7 266.3 25.0
511.7 263.8 25.0
511.7 261.3 25.0
511.7 258.7 25.0
511.7 253.7 25.0
508.6 249.1 25.2
508.6 241.6 25.2
511.6 241.0 25.0
513.6 239.8 24.8
513.6 234.7 24.8
511.5 230.9 25.0
511.5 220.8 24.9
508.4 206.4 25.2
509.4 199.5 25.1
509.3 196.9 25.1
509.3 194.4 25.1
508.3 186.4 25.1
506.2 175.4 25.3
513.2 173.6 24.7
506.2 167.9 25.3
509.1 164.2 25.0
511.1 162.6 24.9
511.1 160.0 24.9
509.1 156.7 25.0
504.1 149.7 25.4
509.0 146.6 25.0
509.0 144.1 25.0
509.0 141.6 25.0
508.0 138.7 25.1
511.0 137.3 24.8
506.0 133.0 25.2
510.9 129.7 24.8
510.9 124.6 24.8
508.8 113.9 25.0
508.8 111.4 25.0
503.8 105.1 25.4
507.8 103.6 25.0
507.8 101.1 25.0
507.8 98.6 25.0
508.7 96.3 25.0
505.7 93.1 25.2
507.7 88.6 25.0
505.7 85.7 25.2
507.7 83.5 25.0
508.7 81.2 24.9
507.6 78.5 25.0
510.6 74.0 24.8
518.6 72.6 24.1
538.6 70.1 22.5
521.8 289.3 21.6
519.8 285.1 21.8
517.8 278.4 22.0
514.8 110.5 21.9
518.8 108.9 21.6
507.7 98.6 22.5
510.7 91.7 22.3
510.6 86.6 22.2
503.6 82.8 22.9
507.6 81.0 22.5
505.6 78.2 22.7
510.6 76.5 22.2
516.6 72.3 21.7
555.5 420.5 16.0
561.5 418.1 15.5
516.7 108.4 19.2
510.7 104.4 19.7
508.6 78.7 19.9
530.6 87.8 15.1
