377.9 186.8 69.0
379.9 185.4 69.2
389.9 185.4 70.1
391.9 185.3 70.2
393.9 183.5 70.4
391.9 180.4 70.2
393.9 180.2 70.4
395.9 180.1 70.6
398.9 178.9 70.8
403.9 179.0 71.3
407.8 167.8 71.6
411.9 168.5 71.9
414.9 168.6 72.2
417.9 168.6 72.5
422.9 166.1 72.9
417.8 161.3 72.4
422.8 162.4 72.9
425.8 160.3 73.1
433.8 155.0 73.8
437.8 153.2 74.2
439.8 152.2 74.3
443.8 152.1 74.7
443.8 148.1 74.7
445.8 145.0 74.8
455.8 145.3 75.7
457.8 144.1 75.9
459.8 140.7 76.0
468.8 142.3 76.8
468.7 135.6 76.8
474.7 135.7 77.3
474.7 133.5 77.3
470.7 129.8 77.0
484.7 127.9 78.2
492.7 128.3 78.9
496.7 124.8 79.2
496.7 122.4 79.2
498.7 120.5 79.4
502.7 119.3 79.7
498.7 115.7 79.4
502.7 114.4 79.7
513.7 114.9 80.6
515.7 112.9 80.8
515.7 110.4 80.8
519.7 108.8 81.2
525.7 107.7 81.7
529.7 106.0 82.0
541.7 103.4 83.0
541.6 100.6 83.0
545.6 98.7 83.4
547.6 96.3 83.5
552.6 94.4 84.0
556.6 92.3 84.3
558.6 89.8 84.5
565.0 -182.8 84.8
567.0 -186.8 85.0
564.9 -191.6 84.8
562.9 -193.4 84.6
564.9 -197.5 84.8
558.9 -202.8 84.3
558.8 -208.6 84.3
558.8 -211.5 84.3
554.8 -214.8 83.9
550.8 -215.2 83.6
550.8 -218.0 83.6
549.7 -228.7 83.5
545.7 -228.8 83.1
543.7 -230.3 83.0
545.7 -237.3 83.1
537.6 -237.1 82.4
543.6 -244.2 82.9
543.6 -247.0 82.9
533.6 -247.8 82.1
527.5 -256.7 81.6
529.5 -260.9 81.7
531.5 -265.2 81.9
523.5 -261.4 81.2
527.4 -267.3 81.5
531.4 -273.3 81.9
525.4 -271.0 81.4
523.4 -274.6 81.2
521.4 -275.5 81.0
523.4 -279.9 81.2
521.4 -280.8 81.0
519.3 -286.8 80.8
511.3 -284.8 80.1
517.3 -292.8 80.6
513.3 -291.7 80.3
515.3 -296.1 80.5
513.2 -299.4 80.3
513.2 -302.0 80.3
509.2 -300.7 79.9
511.2 -305.1 80.1
511.2 -312.8 80.1
506.1 -317.8 79.7
506.1 -322.9 79.7
506.1 -325.4 79.7
504.1 -328.3 79.5
500.1 -326.5 79.1
500.0 -328.9 79.1
498.0 -329.2 79.0
500.0 -333.9 79.1
498.0 -339.0 79.0
496.0 -341.7 78.8
493.9 -344.2 78.6
493.9 -349.1 78.6
491.9 -351.6 78.4
487.9 -356.3 78.1
481.9 -356.1 77.6
349.0 211.1 65.3
348.0 206.2 65.2
357.0 209.0 65.9
355.0 202.9 65.7
357.0 203.6 65.9
360.9 195.1 66.2
361.9 191.9 66.3
364.9 191.8 66.5
368.9 191.0 66.8
373.9 192.5 67.2
369.9 187.5 66.9
378.9 184.6 67.6
385.9 185.5 68.1
386.9 184.7 68.2
388.9 184.6 68.4
386.9 181.5 68.2
393.9 180.3 68.8
405.9 176.9 69.7
404.9 174.5 69.6
405.8 173.4 69.7
408.8 170.2 69.9
416.9 173.4 70.6
411.8 166.7 70.2
414.8 165.0 70.4
425.8 164.1 71.3
420.8 159.4 70.9
429.8 160.6 71.6
429.8 158.7 71.6
431.8 157.9 71.7
435.8 158.0 72.0
435.8 154.1 72.0
439.8 152.2 72.3
437.7 149.2 72.2
443.8 150.1 72.7
443.7 144.1 72.6
445.7 143.0 72.8
453.7 144.5 73.4
461.7 143.7 74.1
461.7 141.5 74.1
461.7 139.4 74.1
472.7 139.4 74.9
467.7 135.3 74.5
472.7 135.0 74.9
474.7 133.5 75.1
482.7 131.8 75.7
480.7 128.8 75.5
484.7 127.9 75.8
488.7 126.9 76.2
496.7 127.2 76.8
502.7 124.2 77.2
498.7 120.5 76.9
500.6 118.7 77.1
511.6 114.4 77.9
515.6 112.9 78.3
515.6 110.4 78.3
525.6 107.7 79.0
527.6 105.6 79.2
535.6 104.7 79.8
533.6 101.6 79.7
537.6 99.7 80.0
545.6 98.7 80.6
549.6 96.7 80.9
547.6 93.5 80.7
560.6 93.1 81.8
562.6 90.5 81.9
562.5 87.6 81.9
566.5 85.4 82.2
580.6 84.6 83.3
580.5 81.5 83.3
580.5 78.5 83.3
582.5 75.7 83.5
590.5 73.6 84.1
601.5 68.6 84.9
602.4 -115.1 84.9
602.4 -121.5 84.9
598.3 -123.4 84.5
598.3 -126.6 84.5
594.3 -128.4 84.2
591.3 -130.4 84.0
592.3 -133.9 84.1
591.3 -136.7 84.0
592.2 -140.2 84.1
594.2 -144.2 84.2
587.2 -153.9 83.6
581.1 -157.4 83.2
583.1 -161.4 83.3
577.1 -161.7 82.8
575.0 -169.9 82.7
577.0 -173.9 82.8
575.0 -175.9 82.7
568.9 -184.9 82.2
568.9 -187.8 82.2
570.9 -191.9 82.3
566.9 -192.7 82.0
564.9 -197.5 81.9
558.8 -199.9 81.4
556.8 -201.6 81.2
562.8 -208.1 81.7
558.8 -208.6 81.4
554.8 -209.1 81.1
554.8 -212.0 81.1
550.7 -215.2 80.7
554.7 -220.6 81.0
550.7 -220.9 80.7
554.7 -226.3 81.0
549.7 -225.9 80.7
543.7 -224.7 80.2
543.7 -227.5 80.2
549.6 -234.4 80.6
543.6 -235.8 80.2
547.6 -241.5 80.5
543.6 -244.2 80.2
535.6 -243.9 79.5
537.5 -250.9 79.7
535.4 -268.4 79.5
531.4 -267.9 79.2
529.4 -269.0 79.0
529.4 -271.7 79.0
527.4 -272.7 78.9
523.3 -277.2 78.5
523.3 -279.9 78.5
511.3 -287.3 77.6
513.2 -291.7 77.7
515.2 -296.1 77.9
513.2 -299.4 77.7
513.2 -302.0 77.7
511.2 -305.1 77.6
509.1 -308.3 77.4
506.1 -310.3 77.2
511.1 -317.9 77.6
500.1 -321.5 76.7
500.0 -326.5 76.7
498.0 -326.8 76.5
494.0 -324.9 76.2
494.0 -329.7 76.2
496.0 -336.8 76.4
495.9 -341.7 76.3
493.9 -341.8 76.2
489.9 -351.6 75.9
489.8 -356.4 75.9
489.8 -358.8 75.9
489.8 -361.1 75.9
483.8 -358.5 75.4
346.0 219.3 63.8
343.0 213.3 63.6
344.0 210.7 63.6
346.0 210.4 63.8
345.9 206.6 63.8
359.0 211.1 64.7
361.0 206.2 64.8
357.9 199.1 64.6
359.9 198.3 64.7
355.9 193.1 64.5
370.9 188.4 65.5
378.9 192.2 66.1
378.9 187.6 66.1
382.9 187.8 66.4
384.9 186.3 66.5
389.8 177.3 66.8
402.9 181.7 67.8
402.8 174.9 67.8
401.8 172.5 67.7
404.8 171.0 67.9
405.8 170.0 68.0
408.8 170.2 68.2
414.8 165.0 68.6
419.8 166.2 69.0
423.8 166.7 69.2
425.8 166.0 69.4
424.8 163.5 69.3
426.8 162.8 69.4
424.8 157.9 69.3
426.8 157.1 69.4
435.8 160.0 70.1
431.7 154.0 69.8
433.7 153.1 69.9
439.7 154.2 70.4
439.7 150.2 70.4
443.7 148.1 70.6
447.7 148.0 70.9
455.7 147.5 71.5
453.7 144.5 71.3
453.7 142.4 71.3
461.7 143.7 71.9
472.7 139.4 72.7
476.7 136.5 73.0
476.7 134.2 73.0
478.7 132.7 73.1
482.6 127.2 73.4
490.7 127.6 73.9
500.6 123.6 74.6
502.6 121.8 74.8
508.6 118.6 75.2
515.6 112.9 75.7
519.6 111.4 76.0
529.6 111.4 76.7
521.6 106.7 76.1
529.6 106.0 76.7
535.6 104.7 77.1
539.6 102.9 77.4
539.5 100.2 77.4
547.6 99.1 77.9
547.5 96.3 77.9
551.5 94.3 78.2
560.5 93.1 78.9
564.5 88.0 79.1
570.5 86.0 79.6
566.5 82.4 79.3
582.5 81.8 80.4
578.5 78.2 80.1
586.5 76.2 80.7
586.4 73.1 80.7
593.4 70.8 81.2
603.4 68.8 81.9
603.4 65.6 81.9
615.4 63.5 82.7
613.4 60.0 82.6
623.4 57.5 83.3
625.4 54.2 83.4
633.4 51.3 84.0
636.4 48.1 84.2
638.3 44.7 84.3
642.3 41.4 84.6
648.0 -15.4 85.0
645.9 -25.9 84.8
643.9 -36.3 84.7
639.8 -39.3 84.4
641.8 -43.1 84.5
641.8 -46.7 84.5
635.8 -49.2 84.1
637.8 -53.0 84.2
635.7 -56.2 84.1
635.7 -59.7 84.1
630.7 -62.2 83.7
624.7 -64.5 83.3
630.7 -69.1 83.7
618.6 -70.0 82.8
624.6 -74.7 83.3
624.6 -78.1 83.3
624.6 -81.5 83.2
622.5 -87.7 83.1
624.5 -91.6 83.2
620.5 -94.0 82.9
616.5 -96.3 82.7
610.5 -97.9 82.2
616.4 -102.9 82.7
610.4 -104.5 82.2
608.4 -107.2 82.1
608.4 -110.5 82.1
608.4 -113.7 82.1
606.4 -116.4 81.9
592.3 -130.8 80.9
594.2 -134.7 81.1
592.2 -137.1 80.9
589.2 -139.1 80.7
591.2 -143.0 80.8
592.1 -149.7 80.9
589.1 -151.6 80.7
587.1 -153.8 80.5
587.1 -157.0 80.5
579.1 -156.5 80.0
583.1 -161.4 80.2
577.1 -161.7 79.8
581.0 -169.7 80.1
575.0 -172.9 79.7
571.0 -176.9 79.4
564.9 -176.9 78.9
570.9 -182.9 79.4
570.9 -188.9 79.4
568.9 -190.8 79.2
568.9 -193.8 79.2
566.8 -198.6 79.1
558.8 -199.9 78.5
558.8 -202.8 78.5
550.8 -201.0 77.9
562.7 -211.0 78.8
556.7 -216.1 78.3
554.7 -217.7 78.2
550.7 -218.0 77.9
552.7 -222.1 78.0
549.6 -228.7 77.8
541.6 -226.1 77.3
537.6 -226.2 77.0
539.6 -233.0 77.1
543.6 -238.6 77.4
543.5 -241.4 77.4
541.5 -242.8 77.2
537.5 -242.6 76.9
533.5 -245.1 76.7
535.4 -260.3 76.8
533.4 -261.4 76.6
529.4 -266.3 76.3
525.4 -268.3 76.1
527.3 -272.7 76.2
525.3 -273.6 76.1
525.3 -276.3 76.1
525.3 -278.9 76.1
525.3 -281.6 76.0
521.3 -280.8 75.8
521.3 -283.4 75.8
519.3 -284.2 75.6
515.2 -291.0 75.3
513.2 -291.7 75.2
515.2 -296.1 75.3
509.2 -300.7 74.9
507.1 -301.2 74.7
507.1 -303.8 74.7
507.1 -311.3 74.7
506.0 -317.8 74.7
504.0 -320.8 74.5
504.0 -323.3 74.5
500.0 -321.5 74.2
502.0 -326.1 74.4
504.0 -330.7 74.5
498.0 -331.7 74.1
494.0 -329.7 73.8
497.9 -336.6 74.1
493.9 -339.4 73.8
491.9 -339.5 73.6
491.9 -344.3 73.6
491.9 -346.7 73.6
489.8 -351.6 73.5
493.8 -358.7 73.8
489.8 -358.7 73.5
344.0 210.7 62.4
342.9 205.8 62.3
350.9 204.1 62.8
353.9 205.9 63.0
349.9 199.2 62.7
360.9 199.3 63.4
365.9 199.8 63.7
365.9 198.4 63.7
368.9 192.5 63.9
371.9 193.7 64.1
373.9 192.5 64.2
385.9 190.2 65.0
387.9 187.0 65.1
400.9 190.4 65.9
388.8 179.8 65.2
400.9 187.0 65.9
396.8 180.8 65.7
396.8 177.5 65.7
398.8 177.2 65.8
410.8 171.4 66.6
413.8 169.8 66.7
420.8 170.4 67.2
417.8 166.8 67.0
418.8 165.6 67.1
422.8 166.1 67.3
425.8 164.1 67.5
426.8 162.8 67.6
426.7 160.9 67.6
429.7 160.6 67.7
435.7 158.0 68.1
435.7 152.2 68.1
447.7 152.1 68.9
443.7 148.1 68.6
451.7 147.7 69.1
455.7 145.3 69.4
457.7 144.1 69.5
459.7 142.8 69.6
463.7 142.4 69.9
463.7 140.2 69.9
463.7 138.0 69.9
465.6 136.7 70.0
478.7 137.3 70.8
476.6 134.2 70.7
478.6 130.4 70.8
482.6 127.2 71.1
486.6 126.3 71.3
492.6 123.5 71.7
496.6 122.4 71.9
502.6 121.8 72.3
504.6 119.9 72.4
508.6 118.6 72.7
515.6 112.9 73.1
521.6 112.0 73.5
527.5 108.2 73.9
533.5 107.0 74.3
533.5 104.3 74.3
541.5 103.4 74.8
543.5 101.0 74.9
547.5 99.1 75.1
549.5 96.7 75.3
552.5 94.5 75.5
556.5 92.4 75.7
560.5 87.3 76.0
566.4 85.4 76.3
574.4 83.7 76.8
580.4 81.5 77.2
586.4 79.3 77.6
588.4 76.5 77.7
593.4 70.8 78.0
601.4 68.6 78.5
609.4 66.2 79.0
613.4 63.3 79.3
613.4 60.0 79.3
623.3 57.5 79.9
636.3 51.5 80.7
633.3 47.9 80.5
636.3 44.6 80.7
638.3 41.2 80.8
652.2 34.6 81.7
654.2 31.0 81.8
660.2 27.5 82.2
664.2 23.8 82.5
666.2 20.1 82.6
666.1 16.4 82.6
662.1 12.8 82.3
664.1 5.4 82.4
658.1 2.0 82.1
662.0 -1.9 82.3
658.0 -5.3 82.0
660.0 -9.1 82.2
660.0 -12.7 82.2
649.9 -15.6 81.5
647.9 -19.0 81.4
655.9 -23.3 81.9
645.9 -29.5 81.3
647.8 -36.8 81.4
645.8 -40.1 81.2
639.8 -42.8 80.9
637.7 -49.5 80.7
635.7 -52.7 80.6
635.7 -56.2 80.6
639.7 -60.4 80.8
630.6 -62.2 80.3
635.6 -66.6 80.6
632.6 -69.5 80.4
624.6 -71.3 79.9
626.6 -75.1 80.0
622.5 -77.6 79.7
624.5 -81.5 79.9
620.5 -83.9 79.6
620.5 -87.3 79.6
616.5 -89.6 79.3
622.4 -94.5 79.7
614.4 -95.7 79.2
614.4 -99.0 79.2
612.4 -101.8 79.1
612.4 -105.1 79.1
610.4 -107.8 78.9
610.3 -111.1 78.9
606.3 -113.1 78.7
608.3 -120.3 78.8
598.3 -123.4 78.2
600.2 -127.3 78.3
594.2 -137.8 77.9
596.1 -141.8 78.0
592.1 -143.4 77.8
592.1 -146.5 77.7
589.1 -151.6 77.6
589.1 -154.7 77.5
583.0 -155.2 77.2
583.0 -158.3 77.2
583.0 -161.4 77.2
579.0 -162.6 76.9
583.0 -167.5 77.2
583.0 -170.6 77.1
577.0 -170.8 76.8
574.9 -172.9 76.6
570.9 -173.9 76.4
572.9 -177.9 76.5
570.9 -179.9 76.4
568.9 -181.9 76.2
566.9 -183.8 76.1
564.8 -188.6 76.0
566.8 -195.7 76.1
574.8 -203.1 76.6
558.8 -199.9 75.6
558.7 -202.8 75.6
558.7 -208.6 75.6
550.7 -209.5 75.1
554.7 -214.8 75.3
550.6 -218.0 75.1
550.6 -220.8 75.1
547.6 -221.7 74.9
549.6 -225.9 75.0
549.6 -228.7 75.0
545.6 -231.6 74.7
545.5 -234.4 74.7
539.5 -238.6 74.3
533.5 -239.7 74.0
537.5 -245.4 74.2
539.4 -249.6 74.3
535.4 -249.3 74.1
531.4 -257.1 73.8
531.4 -259.8 73.8
531.3 -265.2 73.8
527.3 -264.7 73.5
525.3 -271.0 73.4
523.3 -277.2 73.3
521.3 -278.1 73.1
525.2 -284.2 73.4
517.2 -279.9 72.9
519.2 -284.2 73.0
521.2 -288.6 73.1
515.2 -293.6 72.7
515.1 -298.7 72.7
509.1 -300.7 72.4
507.1 -301.2 72.2
509.0 -313.3 72.3
500.0 -319.1 71.8
502.0 -326.1 71.9
499.9 -328.9 71.8
497.9 -331.7 71.6
497.9 -336.6 71.6
489.9 -330.1 71.1
493.8 -349.1 71.3
489.8 -351.6 71.1
485.8 -356.3 70.8
481.7 -358.4 70.6
342.0 214.7 61.0
345.0 215.6 61.2
350.9 208.1 61.5
348.9 203.3 61.4
353.9 205.9 61.7
357.9 206.0 61.9
356.9 200.9 61.8
359.9 199.7 62.0
357.9 195.0 61.9
369.8 187.6 62.5
373.8 188.0 62.7
379.8 188.5 63.1
383.8 188.6 63.3
398.8 178.9 64.1
399.8 176.2 64.2
401.8 175.9 64.3
405.8 176.9 64.5
400.8 171.8 64.2
405.8 171.7 64.5
407.8 171.3 64.6
414.8 172.2 65.0
414.8 170.4 65.0
416.8 168.0 65.1
414.7 165.0 65.0
420.7 163.1 65.3
435.7 158.0 66.2
437.7 157.1 66.3
433.7 153.1 66.1
437.7 153.2 66.3
443.7 154.2 66.6
441.7 151.2 66.5
445.7 151.1 66.7
445.7 149.1 66.7
447.7 148.0 66.8
447.6 145.9 66.8
453.6 144.5 67.2
453.6 142.4 67.2
455.6 141.1 67.3
463.6 140.2 67.7
465.6 138.9 67.8
468.6 135.7 68.0
472.6 135.0 68.2
478.6 135.0 68.5
476.6 132.0 68.4
486.6 130.9 69.0
486.6 128.6 69.0
492.6 128.3 69.3
494.6 126.5 69.4
492.6 123.5 69.3
502.6 124.2 69.9
506.5 118.0 70.1
513.5 117.5 70.5
519.5 116.6 70.8
513.5 109.9 70.5
521.5 109.3 70.9
525.5 107.7 71.1
525.5 105.1 71.1
541.5 103.4 72.0
545.5 101.5 72.2
547.5 96.3 72.3
551.4 94.3 72.6
560.4 93.1 73.1
552.4 88.8 72.6
560.4 87.3 73.1
578.4 87.3 74.1
574.4 83.7 73.8
588.4 79.6 74.6
590.4 76.8 74.7
590.4 73.6 74.7
601.3 68.6 75.3
605.3 65.8 75.5
615.3 60.2 76.1
625.3 57.6 76.6
629.3 54.5 76.9
621.3 50.6 76.4
638.3 48.2 77.4
634.2 44.5 77.1
642.2 41.4 77.6
646.2 38.0 77.8
650.2 34.5 78.0
650.2 31.0 78.0
656.2 27.4 78.3
662.1 20.2 78.7
664.1 16.5 78.8
668.1 9.0 79.0
666.0 5.3 78.9
658.0 2.0 78.4
654.0 -1.5 78.2
660.0 -5.4 78.5
657.9 -8.9 78.4
655.9 -12.4 78.3
653.9 -15.9 78.2
653.9 -23.1 78.2
651.8 -26.5 78.0
647.8 -29.7 77.8
651.8 -33.7 78.0
643.8 -36.3 77.6
643.7 -39.9 77.6
639.7 -42.8 77.3
637.7 -46.1 77.2
643.7 -50.5 77.6
637.7 -53.0 77.2
633.6 -55.8 77.0
637.6 -60.0 77.2
624.6 -67.9 76.5
622.5 -70.9 76.4
620.5 -73.8 76.3
628.5 -78.9 76.7
622.5 -81.0 76.4
618.5 -83.4 76.1
624.4 -88.2 76.5
620.4 -90.6 76.2
620.4 -94.0 76.2
614.4 -99.0 75.9
612.3 -101.8 75.8
616.3 -106.3 76.0
608.3 -107.2 75.5
606.3 -113.1 75.4
608.2 -120.3 75.5
600.2 -127.3 75.1
600.2 -130.5 75.1
594.2 -131.5 74.7
598.1 -136.2 74.9
600.1 -140.1 75.1
591.1 -139.8 74.5
594.1 -144.2 74.7
589.1 -145.3 74.4
592.0 -149.7 74.6
592.0 -152.8 74.6
589.0 -154.7 74.4
585.0 -156.1 74.2
591.0 -161.8 74.5
581.0 -160.5 74.0
581.0 -163.5 74.0
584.9 -168.5 74.2
582.9 -170.6 74.1
578.9 -174.8 73.8
578.9 -177.9 73.8
578.8 -180.9 73.8
566.9 -177.9 73.2
574.8 -185.0 73.6
566.8 -186.8 73.2
562.8 -187.6 72.9
562.8 -190.5 72.9
566.8 -195.6 73.1
566.7 -198.6 73.1
558.7 -205.7 72.7
560.7 -209.8 72.8
554.6 -211.9 72.5
554.6 -214.8 72.4
556.6 -219.0 72.6
554.6 -220.6 72.4
550.6 -220.8 72.2
549.6 -225.9 72.2
550.5 -229.4 72.2
545.5 -228.8 71.9
547.5 -233.0 72.0
547.5 -235.8 72.0
541.5 -234.4 71.7
545.5 -240.0 71.9
543.5 -241.4 71.8
543.4 -244.2 71.8
539.4 -249.6 71.6
537.4 -253.6 71.5
541.4 -259.4 71.7
531.4 -254.4 71.1
535.3 -260.2 71.3
531.3 -259.8 71.1
529.3 -263.6 71.0
531.3 -267.9 71.1
527.3 -267.3 70.9
525.3 -271.0 70.8
529.2 -277.0 71.0
525.2 -276.3 70.8
523.2 -277.2 70.6
517.2 -274.7 70.3
519.2 -284.2 70.4
519.2 -289.4 70.4
517.1 -292.8 70.3
517.1 -295.4 70.3
517.1 -298.0 70.3
517.1 -300.6 70.3
517.1 -303.2 70.3
515.1 -303.9 70.2
513.1 -304.5 70.0
509.0 -305.7 69.8
507.0 -311.3 69.7
507.0 -316.3 69.7
493.9 -334.6 68.9
495.8 -341.6 69.1
491.8 -346.7 68.8
491.7 -353.9 68.8
485.7 -361.0 68.5
343.9 210.7 59.8
348.9 213.7 60.1
346.9 207.7 60.0
349.9 208.3 60.1
348.9 204.6 60.1
348.9 203.3 60.1
350.9 204.1 60.2
361.8 194.7 60.7
362.8 194.2 60.7
365.8 195.5 60.9
359.8 188.7 60.6
367.8 193.1 61.0
368.8 191.0 61.0
366.8 187.9 60.9
373.8 188.0 61.3
374.8 187.4 61.3
376.8 187.5 61.4
373.8 182.1 61.3
386.8 186.3 61.9
384.8 183.1 61.8
392.8 187.7 62.2
388.8 179.8 62.0
392.8 181.2 62.2
400.8 183.7 62.6
396.8 177.5 62.4
404.8 177.9 62.7
406.8 174.1 62.8
422.7 167.9 63.6
422.7 164.2 63.6
426.7 164.6 63.8
427.7 163.3 63.8
431.7 161.7 64.0
435.7 154.1 64.2
443.7 156.2 64.6
445.6 151.1 64.7
443.6 148.1 64.6
449.6 148.9 64.9
447.6 145.9 64.8
455.6 145.4 65.2
457.6 142.0 65.3
461.6 141.5 65.4
465.6 141.0 65.6
467.6 139.7 65.7
470.6 132.0 65.9
486.6 128.6 66.6
494.6 128.9 67.0
492.5 125.9 66.9
496.5 124.8 67.1
496.5 122.4 67.1
502.5 121.8 67.4
511.5 119.5 67.8
517.5 116.1 68.1
521.5 114.6 68.3
517.5 110.9 68.1
525.5 107.7 68.5
529.5 106.0 68.7
541.4 103.4 69.3
547.4 101.9 69.5
549.4 99.5 69.6
549.4 96.7 69.6
556.4 92.4 70.0
558.4 89.8 70.1
568.4 85.7 70.5
572.4 83.4 70.7
582.4 81.8 71.2
584.3 79.0 71.3
593.3 77.2 71.7
590.3 73.6 71.6
590.3 70.5 71.6
599.3 68.4 72.0
605.3 65.8 72.3
615.3 63.5 72.8
615.3 60.2 72.8
619.2 57.2 73.0
633.2 51.4 73.6
640.2 48.3 74.0
638.2 44.7 73.9
648.2 41.6 74.3
648.2 38.1 74.3
656.1 34.7 74.7
656.1 31.1 74.7
658.1 27.5 74.8
662.1 23.8 75.0
666.1 20.2 75.2
666.0 16.5 75.2
664.0 9.1 75.1
664.0 5.4 75.1
657.9 2.0 74.8
659.9 -1.8 74.9
659.9 -5.4 74.9
653.9 -8.7 74.6
653.9 -12.3 74.6
651.8 -15.7 74.5
653.8 -19.5 74.6
649.8 -22.7 74.4
653.8 -26.7 74.5
649.8 -29.9 74.3
645.7 -33.0 74.1
641.7 -36.1 74.0
645.7 -40.1 74.1
643.7 -43.4 74.0
635.6 -45.8 73.6
637.6 -49.5 73.7
630.5 -65.6 73.4
630.5 -69.1 73.4
622.5 -70.8 73.0
628.5 -75.5 73.3
622.4 -77.6 73.0
626.4 -81.9 73.2
626.4 -85.3 73.2
620.4 -87.2 72.9
616.4 -89.6 72.7
622.3 -94.5 73.0
614.3 -99.0 72.6
616.3 -102.9 72.7
612.3 -108.4 72.5
610.2 -111.1 72.4
608.2 -113.7 72.3
602.2 -115.1 72.0
608.2 -120.3 72.3
596.1 -125.9 71.7
594.1 -128.3 71.6
596.1 -132.2 71.7
596.1 -135.4 71.7
594.1 -137.8 71.6
592.1 -140.2 71.5
592.0 -143.4 71.5
592.0 -146.5 71.4
591.0 -152.4 71.4
594.0 -156.8 71.5
583.0 -155.2 71.0
582.9 -161.4 71.0
578.9 -162.6 70.8
584.9 -168.5 71.1
580.9 -169.7 70.9
576.8 -173.9 70.7
580.8 -178.9 70.9
576.8 -179.9 70.7
572.8 -180.9 70.5
568.8 -181.9 70.3
566.7 -189.7 70.2
562.7 -202.2 70.0
560.6 -206.9 69.9
558.6 -208.6 69.8
556.6 -210.3 69.7
550.6 -209.5 69.4
554.6 -214.8 69.6
558.5 -223.1 69.8
550.5 -235.0 69.4
543.5 -235.8 69.0
547.4 -241.4 69.2
543.4 -241.4 69.0
539.4 -241.3 68.8
543.4 -247.0 69.0
545.4 -251.2 69.1
537.3 -253.6 68.7
537.3 -256.3 68.7
537.3 -259.1 68.7
529.3 -258.2 68.3
531.3 -265.2 68.4
531.3 -267.9 68.4
529.2 -269.0 68.3
525.2 -271.0 68.1
525.2 -273.6 68.1
517.2 -272.1 67.7
523.2 -282.5 68.0
517.2 -279.9 67.7
517.2 -282.4 67.7
517.1 -298.0 67.7
515.1 -298.7 67.6
515.0 -301.3 67.6
507.0 -298.7 67.2
511.0 -307.7 67.4
507.0 -308.8 67.2
509.0 -313.3 67.3
502.0 -308.8 67.0
504.0 -313.3 67.0
503.9 -318.3 67.0
506.9 -323.9 67.2
501.9 -321.2 66.9
505.9 -327.9 67.1
495.9 -322.2 66.6
499.8 -341.2 66.8
495.8 -341.6 66.6
491.8 -346.7 66.4
493.7 -351.5 66.5
489.7 -351.6 66.3
491.7 -356.3 66.4
485.7 -356.3 66.1
489.6 -365.9 66.3
348.9 213.7 58.8
349.9 212.2 58.8
347.9 208.7 58.7
349.9 208.3 58.8
352.9 208.9 58.9
358.9 205.6 59.2
360.8 200.7 59.3
359.8 197.0 59.2
375.8 195.7 59.9
376.8 190.5 59.9
384.8 189.4 60.2
379.8 182.3 60.0
392.8 184.4 60.5
393.8 183.5 60.6
398.8 183.9 60.8
399.8 183.0 60.8
410.7 173.2 61.3
410.7 171.4 61.3
411.7 166.8 61.3
415.7 167.4 61.5
422.7 169.8 61.7
422.7 166.1 61.7
420.7 163.1 61.7
422.7 162.4 61.7
426.7 159.0 61.9
429.6 156.8 62.0
439.6 156.2 62.4
439.6 154.2 62.4
443.6 154.2 62.6
447.6 154.1 62.7
443.6 150.1 62.6
445.6 149.1 62.7
447.6 148.0 62.7
451.6 147.7 62.9
453.6 146.6 63.0
461.6 141.5 63.3
465.6 141.0 63.5
467.6 139.7 63.5
472.6 137.2 63.7
478.5 132.7 64.0
482.5 131.9 64.1
482.5 129.5 64.1
482.5 127.2 64.1
490.5 127.6 64.5
494.5 126.5 64.6
498.5 125.4 64.8
502.5 124.3 64.9
504.5 122.4 65.0
498.5 118.1 64.8
509.5 118.9 65.2
509.5 116.4 65.2
515.5 115.5 65.5
525.5 113.0 65.9
523.4 109.9 65.8
529.4 108.7 66.0
535.4 107.5 66.3
535.4 104.8 66.3
539.4 102.9 66.4
545.4 101.5 66.7
547.4 99.1 66.7
549.4 96.7 66.8
560.4 93.1 67.3
564.4 90.9 67.4
566.3 88.3 67.5
570.3 86.0 67.7
578.3 84.3 68.0
584.3 82.1 68.2
588.3 79.6 68.4
593.3 77.2 68.6
597.3 74.5 68.7
601.3 71.8 68.9
607.2 66.0 69.1
617.2 63.7 69.5
617.2 60.3 69.5
623.2 57.5 69.8
629.2 54.5 70.0
631.2 51.2 70.1
636.2 48.1 70.3
638.1 44.7 70.4
648.1 41.6 70.8
652.1 38.2 70.9
654.1 34.7 71.0
660.1 31.2 71.2
660.0 27.5 71.2
664.0 23.9 71.4
658.0 20.2 71.2
672.0 16.4 71.7
659.9 5.6 71.2
661.9 1.8 71.3
659.9 -1.8 71.2
663.9 -5.6 71.4
657.8 -8.9 71.1
659.8 -12.7 71.2
657.8 -16.2 71.1
647.8 -19.0 70.7
653.7 -23.1 70.9
653.7 -26.7 70.9
651.7 -30.1 70.8
649.7 -37.1 70.8
647.6 -40.4 70.7
645.6 -43.7 70.6
641.6 -46.6 70.4
637.6 -49.5 70.3
635.5 -59.6 70.2
633.5 -62.8 70.1
628.5 -65.2 69.9
628.5 -68.7 69.9
628.4 -72.1 69.9
628.4 -75.5 69.9
620.4 -77.2 69.5
622.4 -81.0 69.6
624.4 -84.8 69.7
618.3 -86.7 69.4
622.3 -91.1 69.6
620.3 -94.0 69.5
612.2 -101.8 69.2
608.2 -103.9 69.0
610.2 -107.8 69.1
612.2 -111.7 69.2
604.1 -119.0 68.8
604.1 -122.2 68.8
600.1 -124.1 68.7
600.1 -127.3 68.6
598.1 -129.8 68.6
594.1 -131.5 68.4
596.0 -135.4 68.5
596.0 -138.6 68.5
591.0 -139.8 68.3
592.0 -143.4 68.3
592.0 -146.5 68.3
590.9 -152.4 68.3
584.9 -156.1 68.0
584.9 -162.3 68.0
580.8 -166.6 67.8
576.8 -173.9 67.7
580.8 -178.9 67.8
568.8 -178.9 67.3
572.7 -183.9 67.5
570.7 -191.9 67.4
570.7 -197.9 67.4
558.7 -194.1 66.9
560.6 -198.1 67.0
556.6 -198.7 66.8
562.6 -208.1 67.0
560.6 -209.8 67.0
560.6 -212.7 67.0
556.6 -213.2 66.8
554.5 -214.8 66.7
552.5 -219.3 66.6
554.5 -223.4 66.7
550.5 -223.7 66.5
549.5 -228.7 66.5
547.4 -233.0 66.4
541.4 -237.2 66.2
541.4 -242.7 66.1
541.4 -245.5 66.1
545.3 -251.2 66.3
539.3 -249.6 66.1
541.3 -253.8 66.1
535.3 -252.1 65.9
539.3 -257.9 66.0
533.3 -261.4 65.8
535.2 -268.4 65.9
529.2 -266.3 65.6
529.2 -277.0 65.6
521.1 -291.2 65.3
509.0 -293.1 64.8
515.0 -301.3 65.0
511.0 -300.0 64.9
504.0 -300.8 64.6
508.9 -310.8 64.8
504.0 -308.3 64.6
506.9 -313.8 64.7
506.9 -318.8 64.7
505.9 -322.8 64.6
503.9 -323.3 64.5
505.8 -327.9 64.6
503.8 -335.7 64.5
497.8 -331.7 64.3
497.8 -334.1 64.3
497.8 -339.0 64.3
497.7 -343.9 64.3
495.7 -344.1 64.2
491.7 -341.9 64.0
491.7 -356.3 64.0
485.7 -356.3 63.8
489.6 -365.9 63.9
342.9 215.8 57.3
338.9 209.9 57.2
342.9 210.8 57.3
348.9 213.7 57.5
347.9 208.7 57.5
356.9 205.0 57.7
358.9 205.6 57.8
358.8 202.9 57.8
359.8 201.1 57.8
360.8 196.5 57.9
360.8 193.7 57.9
369.8 194.8 58.2
366.8 189.3 58.1
374.8 194.8 58.3
373.8 189.5 58.3
382.8 195.6 58.6
378.8 189.2 58.5
378.8 187.6 58.5
380.8 187.7 58.5
399.8 184.6 59.1
399.7 181.3 59.1
401.7 175.9 59.2
406.7 177.6 59.4
399.7 171.2 59.1
403.7 172.1 59.3
410.7 175.0 59.5
409.7 169.0 59.5
415.7 167.4 59.7
414.7 165.0 59.6
414.6 163.2 59.6
418.6 163.7 59.7
424.7 165.4 59.9
426.7 164.7 60.0
426.6 160.9 60.0
431.6 161.7 60.2
431.6 157.9 60.2
435.6 156.1 60.3
439.6 156.2 60.4
443.6 152.2 60.6
459.6 149.3 61.1
457.6 144.1 61.0
465.6 145.4 61.3
470.6 143.1 61.4
468.5 140.1 61.4
474.5 140.2 61.6
474.5 138.0 61.6
472.5 135.0 61.5
472.5 132.7 61.5
476.5 132.0 61.6
476.5 129.7 61.6
484.5 130.2 61.9
486.5 128.6 62.0
494.5 129.0 62.2
498.5 127.9 62.3
502.5 126.7 62.5
498.5 123.0 62.3
502.5 121.8 62.5
506.4 120.5 62.6
515.4 115.5 62.9
523.4 112.5 63.2
531.4 111.9 63.4
535.4 107.5 63.5
537.4 105.2 63.6
539.4 102.9 63.7
549.3 99.5 64.0
551.3 97.1 64.1
552.3 94.5 64.1
564.3 93.9 64.5
564.3 90.9 64.5
568.3 88.7 64.6
572.3 86.4 64.7
576.3 84.0 64.9
586.3 82.4 65.2
586.3 79.3 65.2
590.2 76.8 65.3
592.2 73.9 65.4
605.2 72.3 65.8
605.2 69.0 65.8
609.2 66.2 65.9
619.2 63.9 66.3
615.2 60.2 66.1
621.1 57.3 66.3
627.1 54.4 66.5
634.1 51.4 66.8
636.1 48.1 66.8
642.1 44.9 67.0
652.1 41.8 67.3
652.1 38.2 67.3
656.0 34.7 67.5
658.0 31.1 67.5
656.0 27.5 67.5
662.0 23.9 67.7
668.0 20.2 67.8
665.9 12.8 67.8
667.9 9.0 67.8
667.9 5.3 67.8
657.8 2.0 67.5
659.8 -1.7 67.6
655.8 -5.2 67.4
647.8 -8.3 67.1
661.8 -12.9 67.6
659.7 -16.4 67.5
653.7 -19.5 67.3
649.7 -22.7 67.2
651.6 -30.1 67.3
649.6 -33.5 67.2
647.6 -36.8 67.1
643.6 -39.9 67.0
641.6 -43.1 66.9
641.5 -46.6 66.9
637.5 -49.5 66.8
635.5 -52.7 66.7
635.5 -56.2 66.7
630.4 -62.2 66.5
630.4 -65.6 66.5
626.4 -71.7 66.4
626.4 -75.1 66.4
626.3 -78.5 66.4
624.3 -81.4 66.3
622.3 -84.3 66.2
624.3 -88.2 66.3
622.3 -91.1 66.2
626.2 -95.5 66.3
616.2 -96.2 66.0
614.2 -99.0 65.9
608.2 -103.9 65.7
610.2 -107.8 65.8
610.1 -111.1 65.8
610.1 -114.4 65.8
604.1 -115.7 65.6
606.1 -119.6 65.6
608.1 -123.5 65.7
600.0 -127.3 65.4
602.0 -131.2 65.5
598.0 -133.0 65.4
598.0 -139.4 65.4
599.9 -143.3 65.4
595.9 -144.9 65.3
593.9 -147.3 65.2
595.9 -151.3 65.3
593.9 -153.7 65.2
590.9 -155.5 65.1
586.9 -156.9 65.0
588.8 -160.9 65.0
588.8 -164.1 65.0
584.8 -165.4 64.9
584.8 -168.5 64.9
580.8 -169.7 64.8
582.8 -173.7 64.8
574.8 -172.9 64.6
576.7 -176.9 64.6
570.7 -182.9 64.4
568.7 -184.8 64.3
568.7 -187.8 64.3
572.6 -193.0 64.5
566.6 -195.6 64.3
564.6 -197.5 64.2
558.6 -199.9 64.0
560.5 -206.9 64.0
558.5 -208.6 64.0
558.5 -220.2 64.0
552.5 -219.3 63.8
554.4 -223.4 63.8
547.5 -221.7 63.6
545.4 -226.0 63.5
545.4 -234.4 63.5
541.3 -242.7 63.4
541.3 -245.5 63.4
543.3 -249.8 63.4
543.3 -252.6 63.4
537.3 -253.6 63.2
537.2 -256.3 63.2
531.3 -254.4 63.0
533.2 -261.4 63.1
533.2 -264.1 63.1
527.1 -275.3 62.9
523.1 -277.2 62.7
519.1 -281.6 62.6
519.1 -286.8 62.6
521.0 -291.2 62.6
515.0 -296.1 62.4
511.0 -294.9 62.3
515.0 -301.3 62.4
509.0 -298.1 62.2
509.0 -300.6 62.2
512.9 -307.1 62.4
506.9 -306.3 62.2
508.9 -310.8 62.2
505.9 -310.3 62.1
506.9 -313.8 62.2
503.8 -323.2 62.0
503.8 -325.7 62.0
501.8 -328.6 62.0
493.8 -334.5 61.7
497.7 -343.9 61.8
493.7 -341.8 61.7
497.6 -356.1 61.8
491.6 -353.9 61.6
487.7 -351.6 61.5
489.6 -358.7 61.5
487.6 -358.7 61.5
341.9 214.7 56.0
345.9 212.9 56.1
342.8 207.1 56.0
350.9 213.3 56.2
350.9 209.4 56.2
352.9 210.2 56.3
355.9 210.7 56.4
354.8 207.0 56.3
351.8 201.2 56.3
356.8 205.0 56.4
359.8 206.6 56.5
356.8 200.9 56.4
357.8 196.4 56.4
365.8 202.7 56.6
358.7 189.1 56.4
378.7 189.2 56.9
380.8 189.3 57.0
382.8 189.4 57.0
382.7 183.1 57.0
391.8 188.6 57.3
393.8 188.5 57.3
394.7 184.3 57.3
393.7 181.9 57.3
398.7 183.9 57.4
394.7 176.1 57.3
398.7 177.2 57.4
399.7 176.2 57.4
408.7 175.4 57.7
411.7 175.6 57.8
411.7 172.1 57.7
410.6 169.7 57.7
416.7 171.6 57.9
415.6 169.2 57.8
413.6 166.2 57.8
415.6 163.8 57.8
431.6 157.9 58.2
435.6 158.0 58.3
433.6 155.1 58.3
439.6 156.2 58.4
445.6 157.2 58.6
447.6 156.2 58.6
443.5 148.1 58.5
457.5 148.4 58.9
463.6 148.9 59.0
461.5 145.9 59.0
457.5 139.9 58.9
470.5 143.1 59.2
470.5 140.9 59.2
468.5 137.9 59.2
476.5 136.5 59.4
482.5 131.9 59.5
484.4 127.9 59.6
492.4 128.3 59.8
498.4 127.9 59.9
500.4 126.1 60.0
500.4 123.6 60.0
504.4 122.4 60.1
508.4 118.6 60.2
508.4 116.1 60.2
517.4 116.1 60.4
519.4 114.0 60.4
521.4 112.0 60.5
523.4 109.9 60.5
527.3 108.2 60.6
535.3 107.5 60.8
535.3 104.8 60.8
537.3 102.5 60.9
547.3 101.9 61.1
543.3 98.3 61.0
556.3 98.1 61.4
554.3 94.9 61.3
558.3 92.7 61.4
562.3 90.6 61.5
566.2 88.3 61.6
572.2 86.4 61.8
578.2 84.3 61.9
582.2 81.8 62.0
588.2 79.6 62.2
599.2 71.6 62.4
607.2 69.2 62.6
611.1 66.4 62.7
619.1 63.9 62.9
617.1 60.3 62.9
623.1 57.5 63.0
629.1 54.5 63.2
633.1 51.4 63.3
634.0 48.0 63.3
644.0 45.0 63.5
646.0 41.6 63.6
652.0 38.2 63.7
652.0 34.6 63.7
664.0 31.2 64.0
657.9 27.5 63.9
669.9 23.9 64.2
669.9 20.2 64.2
669.9 16.4 64.2
667.9 12.7 64.1
671.8 8.9 64.2
661.8 5.5 64.0
659.8 -1.7 63.9
655.7 -5.2 63.8
651.7 -8.5 63.7
661.7 -12.9 63.9
653.7 -15.9 63.7
653.7 -19.5 63.7
649.6 -22.7 63.6
653.6 -26.7 63.7
649.6 -37.1 63.6
645.5 -40.1 63.5
647.5 -43.9 63.5
643.5 -46.9 63.4
639.5 -49.8 63.3
635.5 -52.7 63.2
635.4 -56.2 63.2
633.4 -59.3 63.2
633.4 -62.7 63.2
630.4 -65.6 63.1
628.4 -68.7 63.0
630.3 -72.5 63.1
628.3 -78.9 63.0
624.3 -81.4 62.9
626.3 -85.3 62.9
626.2 -88.7 62.9
620.2 -90.6 62.8
626.2 -95.5 62.9
622.2 -97.9 62.8
618.1 -103.5 62.7
612.1 -105.1 62.6
610.1 -107.8 62.5
616.1 -112.9 62.7
612.1 -115.0 62.6
612.1 -118.3 62.5
606.0 -119.6 62.4
604.0 -122.2 62.3
598.0 -126.6 62.2
600.0 -130.5 62.2
597.9 -136.2 62.2
595.9 -141.8 62.1
593.9 -144.2 62.1
591.9 -146.5 62.0
590.9 -149.2 62.0
591.8 -152.8 62.0
586.8 -153.8 61.9
588.8 -157.8 61.9
586.8 -160.0 61.9
582.8 -161.4 61.8
586.8 -166.3 61.8
578.8 -165.7 61.6
584.7 -171.6 61.8
582.7 -173.7 61.7
580.7 -175.8 61.7
578.7 -177.9 61.6
568.7 -178.9 61.4
570.7 -182.9 61.4
570.6 -185.9 61.4
570.6 -188.9 61.4
574.6 -194.0 61.5
568.6 -193.8 61.4
566.6 -195.6 61.3
560.6 -195.2 61.1
560.6 -198.1 61.1
562.5 -205.1 61.2
564.5 -209.3 61.2
554.5 -209.1 61.0
558.5 -214.4 61.1
554.4 -220.5 61.0
552.4 -222.1 60.9
547.4 -221.7 60.8
549.4 -225.9 60.8
549.3 -234.3 60.8
543.3 -233.0 60.7
543.3 -235.8 60.7
541.3 -240.0 60.6
541.3 -242.7 60.6
541.3 -245.5 60.6
539.2 -249.6 60.5
543.2 -258.1 60.6
537.2 -256.3 60.5
531.2 -254.4 60.3
531.2 -259.8 60.3
535.1 -268.4 60.4
531.1 -267.9 60.3
531.1 -270.6 60.3
531.1 -276.0 60.3
529.1 -277.0 60.3
527.1 -278.0 60.2
521.0 -283.4 60.0
521.0 -291.2 60.0
517.0 -290.2 59.9
519.0 -297.2 60.0
514.9 -301.3 59.9
514.9 -306.4 59.9
514.9 -309.0 59.9
505.9 -302.8 59.6
510.9 -310.2 59.7
503.9 -305.8 59.6
505.8 -315.3 59.6
506.8 -323.9 59.6
503.8 -323.2 59.6
505.8 -327.8 59.6
503.7 -330.7 59.5
493.7 -341.8 59.3
487.7 -342.1 59.1
493.6 -351.5 59.3
485.6 -353.9 59.1
487.6 -358.7 59.1
354.8 205.6 55.0
360.8 207.6 55.1
361.8 207.3 55.1
357.8 201.9 55.0
362.8 202.6 55.1
355.7 194.5 55.0
361.8 197.5 55.1
366.8 195.0 55.2
372.8 197.5 55.3
369.7 193.4 55.2
370.7 192.8 55.3
371.7 190.8 55.3
372.7 188.7 55.3
380.7 190.8 55.4
385.7 187.1 55.5
383.7 183.9 55.5
393.7 183.5 55.7
396.7 184.1 55.7
393.7 178.6 55.7
394.7 176.1 55.7
412.7 176.3 56.0
410.6 171.4 56.0
412.6 170.9 56.0
413.6 169.8 56.0
414.6 168.6 56.0
417.6 166.8 56.1
424.6 169.1 56.2
423.6 166.7 56.2
429.6 160.6 56.3
437.6 163.0 56.4
435.6 158.1 56.4
433.5 155.1 56.3
439.5 154.2 56.5
437.5 151.2 56.4
441.5 151.2 56.5
439.5 148.2 56.4
447.5 148.0 56.6
457.5 146.2 56.8
455.5 139.0 56.7
461.5 139.4 56.8
470.5 140.9 57.0
474.5 138.0 57.1
476.5 136.5 57.1
478.4 132.7 57.1
480.4 131.1 57.2
488.4 129.3 57.3
492.4 128.3 57.4
492.4 125.9 57.4
496.4 124.8 57.4
504.4 124.9 57.6
498.4 120.6 57.5
506.4 118.0 57.6
513.3 115.0 57.7
521.3 114.6 57.9
525.3 113.0 58.0
529.3 108.7 58.0
533.3 107.0 58.1
537.3 105.2 58.2
545.3 104.3 58.3
541.3 100.6 58.2
549.3 99.5 58.4
552.3 97.3 58.4
562.2 93.5 58.6
564.2 90.9 58.6
566.2 88.3 58.7
572.2 86.4 58.8
574.2 83.7 58.8
590.2 79.9 59.1
592.1 77.0 59.1
592.1 73.9 59.1
599.1 71.6 59.2
603.1 68.8 59.3
615.1 63.5 59.5
617.1 60.4 59.5
623.0 57.5 59.6
636.0 48.1 59.9
642.0 44.9 60.0
646.0 41.6 60.0
647.9 38.1 60.1
655.9 34.7 60.2
653.9 31.1 60.2
667.8 20.2 60.4
667.8 16.5 60.4
667.8 9.0 60.4
659.7 1.9 60.2
659.7 -1.7 60.2
659.7 -5.4 60.2
653.7 -8.7 60.1
655.6 -12.4 60.2
651.6 -15.7 60.1
653.6 -19.5 60.1
657.6 -23.5 60.2
651.5 -30.1 60.1
651.5 -33.7 60.1
647.5 -36.8 60.0
645.5 -40.1 59.9
645.5 -43.7 59.9
639.4 -46.3 59.8
639.4 -49.8 59.8
633.4 -55.8 59.7
637.4 -60.0 59.8
632.3 -62.6 59.7
632.3 -66.0 59.7
628.3 -68.7 59.6
622.3 -70.8 59.5
628.3 -75.5 59.6
624.2 -78.0 59.5
624.2 -84.8 59.5
622.2 -87.7 59.5
620.1 -97.3 59.4
620.1 -100.7 59.4
614.1 -102.3 59.3
616.1 -106.2 59.3
610.1 -107.8 59.2
610.0 -111.1 59.2
612.0 -115.0 59.3
610.0 -117.6 59.2
614.0 -122.2 59.3
606.0 -126.1 59.1
598.0 -126.6 59.0
597.9 -133.0 59.0
597.9 -142.5 59.0
595.8 -144.9 58.9
591.8 -146.5 58.9
597.8 -152.1 59.0
591.8 -152.8 58.8
591.8 -156.0 58.8
586.8 -156.9 58.7
588.7 -160.9 58.8
584.7 -165.4 58.7
590.7 -171.2 58.8
580.7 -169.7 58.6
580.7 -172.7 58.6
578.7 -174.8 58.6
576.6 -176.9 58.5
576.6 -179.9 58.5
572.6 -180.9 58.5
568.6 -181.9 58.4
570.6 -185.9 58.4
570.6 -188.9 58.4
564.6 -188.6 58.3
570.5 -194.9 58.4
572.5 -199.0 58.4
562.5 -196.3 58.3
560.5 -198.1 58.2
562.5 -202.2 58.3
554.5 -200.4 58.1
558.5 -205.7 58.2
560.4 -209.8 58.2
558.4 -211.5 58.2
554.4 -211.9 58.1
556.4 -216.0 58.1
560.4 -221.5 58.2
550.4 -218.0 58.0
552.4 -222.1 58.1
549.3 -234.3 58.0
550.3 -240.7 58.0
549.2 -242.8 58.0
545.2 -248.4 57.9
545.2 -251.2 57.9
543.2 -252.5 57.9
539.2 -252.3 57.8
535.2 -252.0 57.7
539.2 -257.8 57.8
535.2 -257.5 57.7
535.1 -260.2 57.7
531.1 -262.5 57.6
531.1 -265.2 57.6
531.1 -267.9 57.6
529.1 -274.3 57.6
527.0 -275.3 57.5
525.0 -276.3 57.5
525.0 -278.9 57.5
523.0 -279.8 57.5
523.0 -285.1 57.5
512.9 -296.8 57.3
514.9 -301.3 57.3
514.8 -309.0 57.3
508.9 -305.7 57.2
510.8 -310.2 57.2
508.8 -315.8 57.2
510.8 -320.4 57.2
505.8 -317.8 57.1
506.7 -326.4 57.1
503.7 -325.7 57.1
503.7 -330.7 57.1
499.7 -331.4 57.0
497.7 -331.6 56.9
497.7 -334.1 56.9
497.7 -336.5 56.9
499.6 -341.2 57.0
495.6 -344.1 56.9
493.6 -349.0 56.8
493.6 -351.5 56.8
342.8 210.8 53.5
346.8 214.1 53.6
347.8 213.9 53.6
346.8 207.7 53.6
347.8 204.9 53.6
348.8 204.6 53.6
354.8 205.6 53.6
353.8 200.6 53.6
358.8 202.9 53.7
351.7 189.3 53.6
358.7 189.1 53.7
385.7 187.1 53.9
388.7 187.8 54.0
388.7 181.4 54.0
394.7 182.6 54.0
397.7 181.5 54.1
398.7 180.6 54.1
400.6 178.6 54.1
401.6 172.5 54.1
406.6 174.1 54.1
409.6 174.3 54.2
413.6 169.8 54.2
414.6 166.8 54.2
422.6 169.8 54.3
419.6 164.3 54.3
420.6 163.1 54.3
422.6 162.4 54.3
423.6 161.1 54.3
427.6 161.4 54.4
425.5 158.4 54.3
424.5 156.0 54.3
435.5 156.1 54.4
439.5 156.2 54.5
443.5 156.2 54.5
443.5 152.2 54.5
447.5 150.0 54.5
451.5 149.8 54.6
455.5 147.5 54.6
457.5 146.3 54.6
455.5 143.3 54.6
457.4 142.0 54.6
465.5 143.2 54.7
461.4 139.4 54.7
470.4 138.7 54.8
470.4 136.4 54.8
474.4 135.8 54.8
476.4 134.2 54.8
478.4 132.7 54.9
482.4 131.9 54.9
482.4 129.6 54.9
486.4 128.6 54.9
490.4 127.6 55.0
502.4 129.2 55.1
502.4 126.7 55.1
502.4 124.3 55.1
502.3 121.8 55.1
508.3 121.1 55.2
511.3 119.5 55.2
508.3 116.1 55.1
515.3 115.5 55.2
517.3 113.5 55.2
523.3 112.5 55.3
525.3 110.4 55.3
527.3 108.2 55.3
533.3 107.0 55.4
531.2 103.9 55.4
535.2 102.1 55.4
543.2 101.1 55.5
552.2 100.2 55.6
551.2 97.1 55.6
551.2 94.3 55.6
556.2 92.4 55.6
560.2 90.2 55.7
568.2 88.7 55.7
574.2 86.7 55.8
570.1 83.1 55.8
584.1 82.2 55.9
588.1 79.6 55.9
592.1 77.0 56.0
601.1 71.8 56.1
605.1 69.0 56.1
607.0 62.7 56.1
613.0 60.0 56.2
627.0 57.8 56.3
636.0 51.6 56.4
637.9 48.2 56.4
645.9 45.1 56.5
651.9 41.8 56.6
659.9 34.8 56.6
655.8 31.1 56.6
663.8 27.6 56.7
663.8 23.9 56.7
667.8 20.2 56.7
675.8 16.4 56.8
669.7 12.7 56.7
665.7 9.1 56.7
671.7 5.2 56.7
665.7 1.7 56.7
663.7 -1.9 56.6
663.6 -5.6 56.6
657.6 -8.9 56.6
653.6 -15.9 56.5
655.6 -19.7 56.5
649.5 -22.7 56.5
645.5 -25.9 56.4
649.5 -33.5 56.4
649.4 -37.0 56.4
643.4 -39.8 56.4
647.4 -43.9 56.4
641.4 -46.6 56.3
639.4 -49.8 56.3
639.3 -53.3 56.3
633.3 -55.8 56.2
632.3 -59.1 56.2
633.3 -62.7 56.2
630.3 -65.6 56.2
632.3 -69.5 56.2
624.2 -74.6 56.1
622.2 -77.6 56.1
622.2 -81.0 56.1
624.1 -88.2 56.1
622.1 -91.1 56.1
622.1 -94.5 56.1
622.1 -97.8 56.1
624.1 -101.8 56.1
618.0 -103.5 56.0
610.0 -107.8 55.9
608.0 -113.7 55.9
606.0 -116.3 55.9
603.9 -122.2 55.9
601.9 -124.7 55.8
601.9 -128.0 55.8
601.9 -131.2 55.8
601.9 -134.4 55.8
597.8 -136.1 55.8
593.8 -137.8 55.7
593.8 -141.0 55.7
593.8 -144.1 55.7
591.8 -146.5 55.7
590.7 -152.4 55.7
593.7 -156.8 55.7
588.7 -157.8 55.7
586.7 -160.0 55.6
582.7 -164.4 55.6
586.6 -169.4 55.6
582.6 -170.6 55.6
580.6 -172.7 55.6
570.6 -173.9 55.4
574.6 -181.9 55.5
570.6 -182.9 55.4
572.5 -186.9 55.5
562.6 -184.6 55.4
572.5 -195.9 55.4
568.5 -196.7 55.4
564.5 -197.5 55.4
560.5 -198.1 55.3
558.4 -202.8 55.3
558.4 -205.7 55.3
556.4 -207.4 55.3
558.4 -211.5 55.3
558.4 -214.4 55.3
562.3 -219.8 55.3
556.3 -218.9 55.2
556.3 -221.8 55.2
552.3 -222.1 55.2
549.3 -225.8 55.2
550.3 -232.2 55.2
543.2 -244.2 55.1
535.1 -252.0 55.0
535.1 -254.8 55.0
531.1 -254.4 54.9
533.1 -258.7 55.0
529.1 -258.2 54.9
531.1 -262.5 54.9
531.1 -267.9 54.9
529.0 -274.3 54.9
525.0 -278.9 54.8
522.9 -285.1 54.8
518.9 -292.0 54.8
512.9 -291.7 54.7
512.9 -299.4 54.7
510.8 -302.6 54.7
512.8 -309.6 54.7
503.7 -323.2 54.6
506.7 -328.9 54.6
503.7 -330.7 54.6
495.7 -331.9 54.5
499.6 -338.8 54.5
493.6 -341.8 54.4
493.5 -353.9 54.4
489.5 -353.9 54.4
487.5 -356.3 54.4
487.5 -358.7 54.4
485.5 -361.0 54.3
342.8 215.8 52.3
346.8 216.7 52.3
348.8 208.5 52.3
358.8 212.5 52.3
354.8 205.6 52.3
352.7 199.6 52.3
357.8 201.9 52.3
357.7 196.4 52.3
360.7 196.5 52.3
363.7 195.1 52.3
360.7 191.0 52.3
364.7 189.0 52.3
362.6 184.4 52.3
371.7 190.8 52.3
373.7 189.5 52.3
370.7 185.5 52.3
380.7 184.7 52.4
386.7 187.9 52.4
384.7 184.7 52.4
388.7 184.6 52.4
393.7 186.8 52.4
396.6 177.5 52.4
398.6 177.2 52.4
396.6 174.1 52.4
402.6 174.9 52.4
404.6 172.8 52.4
408.6 173.7 52.4
410.6 173.2 52.4
408.6 170.2 52.4
404.5 165.9 52.4
408.5 164.9 52.4
414.6 166.8 52.4
422.6 166.1 52.4
420.5 163.1 52.4
422.5 162.4 52.4
431.6 165.6 52.5
429.5 162.6 52.5
426.5 159.0 52.5
431.5 159.8 52.5
427.5 155.8 52.5
433.5 157.0 52.5
437.5 157.1 52.5
437.5 153.2 52.5
445.5 155.2 52.5
445.5 153.1 52.5
447.5 152.1 52.5
449.5 151.0 52.5
451.5 149.8 52.5
457.4 144.1 52.5
455.4 141.2 52.5
463.4 142.4 52.5
470.4 136.5 52.6
468.4 133.5 52.5
480.4 131.2 52.6
488.3 129.3 52.6
488.3 127.0 52.6
492.3 123.5 52.6
500.3 123.6 52.6
502.3 121.8 52.6
509.3 121.4 52.6
506.3 118.0 52.6
511.3 114.4 52.6
521.3 114.6 52.7
521.2 112.0 52.7
537.2 102.5 52.7
552.2 100.2 52.7
551.2 97.1 52.7
578.1 84.3 52.8
582.1 81.9 52.8
592.0 73.9 52.8
609.0 69.5 52.9
611.0 66.4 52.9
611.0 63.1 52.9
621.0 60.7 52.9
624.9 57.7 52.9
630.9 51.3 52.9
637.9 48.2 52.9
645.9 45.1 52.9
651.9 41.8 53.0
655.8 38.4 53.0
655.8 34.7 53.0
659.8 31.2 53.0
659.8 27.5 53.0
663.8 23.9 53.0
665.7 20.2 53.0
669.7 16.4 53.0
669.7 12.7 53.0
669.7 9.0 53.0
669.6 5.2 53.0
659.6 1.9 52.9
663.6 -1.9 52.9
657.6 -5.3 52.9
661.6 -9.2 52.9
663.5 -13.0 52.9
655.5 -16.0 52.9
653.5 -19.5 52.9
655.5 -23.3 52.9
649.5 -26.3 52.9
647.4 -33.2 52.9
645.4 -36.5 52.8
643.4 -39.8 52.8
647.4 -43.9 52.8
645.3 -47.2 52.8
639.3 -49.8 52.8
637.3 -53.0 52.8
633.3 -55.8 52.8
633.3 -59.3 52.8
630.2 -62.2 52.8
630.2 -65.6 52.8
630.2 -69.0 52.8
628.2 -72.1 52.8
632.2 -76.4 52.8
622.1 -77.6 52.7
624.1 -81.4 52.7
628.1 -85.8 52.7
622.1 -87.7 52.7
618.1 -90.1 52.7
620.1 -93.9 52.7
618.0 -96.8 52.7
612.0 -98.5 52.7
608.0 -100.6 52.7
614.0 -105.6 52.7
608.0 -110.4 52.6
611.9 -115.0 52.7
601.9 -115.1 52.6
607.9 -120.3 52.6
607.9 -123.5 52.6
605.9 -126.1 52.6
603.8 -128.7 52.6
601.8 -131.2 52.6
597.8 -132.9 52.6
599.8 -136.9 52.6
593.8 -141.0 52.6
597.7 -145.7 52.6
591.7 -146.5 52.6
588.7 -148.4 52.5
591.7 -155.9 52.5
588.7 -157.8 52.5
588.7 -160.9 52.5
580.7 -160.5 52.5
586.6 -166.3 52.5
576.6 -164.7 52.5
576.6 -167.8 52.5
578.6 -174.8 52.5
578.6 -177.9 52.5
572.5 -180.9 52.5
572.5 -183.9 52.4
572.5 -186.9 52.4
570.5 -188.9 52.4
564.5 -188.6 52.4
568.4 -196.7 52.4
562.4 -196.3 52.4
560.4 -201.0 52.4
560.4 -204.0 52.4
560.4 -209.8 52.4
558.3 -211.5 52.4
552.4 -210.7 52.4
560.3 -218.5 52.4
560.3 -221.4 52.4
556.3 -221.8 52.4
552.3 -222.1 52.3
552.3 -225.0 52.3
554.2 -229.1 52.3
552.2 -230.7 52.3
549.2 -231.5 52.3
552.2 -236.4 52.3
545.2 -234.4 52.3
549.2 -242.8 52.3
543.2 -244.2 52.3
537.1 -250.8 52.3
539.1 -255.1 52.3
541.1 -259.4 52.3
533.1 -255.9 52.2
529.1 -258.2 52.2
531.0 -262.5 52.2
529.0 -266.3 52.2
531.0 -273.3 52.2
529.0 -274.3 52.2
525.0 -273.6 52.2
527.0 -278.0 52.2
520.9 -278.1 52.2
520.9 -283.4 52.2
520.9 -291.2 52.2
522.8 -295.7 52.2
512.8 -296.8 52.1
520.8 -306.9 52.1
508.8 -300.6 52.1
512.8 -307.0 52.1
510.8 -307.6 52.1
514.7 -314.1 52.1
512.7 -317.3 52.1
506.7 -313.8 52.1
505.7 -317.8 52.1
503.7 -318.2 52.1
503.7 -325.7 52.1
503.6 -330.7 52.1
491.5 -349.1 52.0
489.5 -353.9 52.0
485.5 -353.9 52.0
487.5 -358.7 52.0
487.4 -363.4 52.0
345.7 198.9 51.0
437.5 159.1 50.5
443.4 152.2 50.5
451.4 149.8 50.4
451.4 145.7 50.4
459.4 147.1 50.4
455.4 143.3 50.4
465.4 143.2 50.4
470.4 140.9 50.3
470.4 136.5 50.3
470.3 134.2 50.3
484.3 134.9 50.3
482.3 129.6 50.3
492.3 130.7 50.2
490.3 127.6 50.2
496.3 127.2 50.2
504.3 124.9 50.2
508.3 123.6 50.1
506.3 120.5 50.1
513.3 120.1 50.1
515.2 118.1 50.1
509.2 113.9 50.1
515.2 113.0 50.1
523.2 112.5 50.1
531.2 111.9 50.0
531.2 106.5 50.0
539.2 105.7 50.0
543.2 103.9 50.0
543.1 101.1 49.9
549.1 99.6 49.9
549.1 96.7 49.9
558.1 92.8 49.9
568.1 88.7 49.8
574.1 86.7 49.8
574.0 83.7 49.8
584.0 82.2 49.7
588.0 79.6 49.7
592.0 77.1 49.7
597.0 74.5 49.7
601.0 68.6 49.6
608.9 66.2 49.6
622.9 64.3 49.5
620.9 60.7 49.5
618.9 57.2 49.5
626.9 54.4 49.5
635.9 51.6 49.5
637.8 48.2 49.4
641.8 44.9 49.4
643.8 41.5 49.4
655.8 34.7 49.3
655.7 31.1 49.3
663.7 27.6 49.3
661.7 23.9 49.3
671.7 20.2 49.2
671.7 16.4 49.2
669.6 12.7 49.2
671.6 8.9 49.2
665.6 5.4 49.3
657.6 2.0 49.3
667.5 -2.1 49.2
663.5 -5.6 49.3
655.5 -8.8 49.3
657.5 -12.5 49.3
655.5 -16.0 49.3
657.4 -19.8 49.3
647.4 -22.5 49.3
653.4 -26.7 49.3
655.4 -34.2 49.3
651.3 -37.3 49.3
649.3 -40.6 49.3
647.3 -43.9 49.3
643.3 -46.9 49.3
637.3 -49.5 49.3
637.2 -53.0 49.3
633.2 -55.8 49.3
632.2 -59.1 49.3
628.2 -68.6 49.3
626.1 -71.6 49.3
630.1 -75.9 49.3
624.1 -78.0 49.3
626.1 -81.9 49.3
624.1 -84.8 49.3
624.0 -88.2 49.3
622.0 -91.1 49.3
622.0 -94.5 49.3
618.0 -96.8 49.3
618.0 -100.1 49.3
615.9 -109.6 49.3
605.9 -109.8 49.4
605.9 -113.1 49.4
613.9 -118.9 49.3
607.8 -120.2 49.4
605.8 -122.8 49.4
603.8 -125.4 49.4
607.8 -130.1 49.3
599.8 -130.5 49.4
595.8 -132.2 49.4
591.8 -133.9 49.4
593.7 -137.8 49.4
590.7 -139.8 49.4
595.7 -144.9 49.4
591.7 -146.5 49.4
593.7 -150.5 49.4
593.6 -153.6 49.4
590.6 -158.7 49.4
586.6 -160.0 49.4
586.6 -166.3 49.4
580.6 -166.6 49.4
574.5 -175.9 49.4
578.5 -180.9 49.4
572.5 -180.9 49.4
570.5 -185.9 49.5
572.4 -189.9 49.4
568.4 -190.8 49.5
564.4 -194.5 49.5
562.4 -199.3 49.5
556.4 -201.6 49.5
558.3 -205.7 49.5
562.3 -211.0 49.5
552.3 -210.7 49.5
556.2 -224.7 49.5
554.2 -226.3 49.5
550.2 -226.5 49.5
552.2 -230.7 49.5
547.2 -230.1 49.5
545.2 -231.6 49.5
547.1 -241.4 49.5
541.1 -245.5 49.5
541.1 -248.3 49.5
535.1 -249.3 49.5
539.0 -255.1 49.5
539.0 -257.8 49.5
531.1 -254.4 49.5
530.9 -273.3 49.5
528.9 -274.3 49.5
524.9 -276.3 49.5
518.9 -276.4 49.6
520.9 -283.3 49.6
520.8 -291.2 49.5
520.8 -293.8 49.5
514.8 -293.5 49.6
512.8 -296.8 49.6
512.7 -307.0 49.6
510.7 -307.6 49.6
512.7 -312.2 49.6
506.7 -313.8 49.6
506.7 -316.3 49.6
505.7 -317.8 49.6
506.6 -326.4 49.6
505.6 -327.8 49.6
501.6 -328.6 49.6
497.6 -329.2 49.6
499.6 -333.8 49.6
499.6 -338.7 49.6
499.5 -348.6 49.6
493.5 -351.4 49.6
485.5 -349.2 49.6
491.4 -361.1 49.6
487.4 -358.7 49.6
487.4 -363.4 49.6
342.8 215.8 49.8
340.8 212.3 49.8
346.8 208.9 49.7
348.8 209.8 49.7
346.7 203.8 49.7
350.7 205.5 49.7
352.7 206.2 49.6
350.7 200.2 49.7
359.7 206.6 49.6
357.7 196.4 49.6
360.7 196.5 49.5
364.7 196.1 49.5
366.7 195.0 49.5
365.6 189.9 49.5
369.7 191.9 49.4
371.6 190.8 49.4
373.6 189.5 49.4
380.6 190.8 49.3
376.6 183.0 49.3
384.6 183.1 49.2
388.6 181.4 49.2
391.6 182.1 49.1
393.6 181.9 49.1
394.6 176.1 49.1
399.6 177.9 49.0
400.5 173.5 49.0
403.5 173.8 49.0
408.6 175.4 48.9
410.5 173.2 48.9
407.5 166.1 48.9
411.5 166.8 48.9
419.5 168.0 48.8
419.5 166.2 48.8
423.5 166.7 48.7
419.5 162.5 48.8
423.5 163.0 48.7
425.5 162.2 48.7
427.5 161.4 48.7
426.5 159.0 48.7
435.5 162.0 48.6
435.5 160.0 48.6
441.4 155.2 48.5
445.4 153.2 48.4
451.4 154.0 48.4
453.4 152.9 48.3
451.4 149.8 48.4
447.4 145.9 48.4
457.4 148.4 48.3
457.4 146.3 48.3
457.4 144.1 48.3
467.4 144.1 48.2
465.3 138.9 48.2
474.3 140.3 48.1
468.3 135.7 48.1
474.3 135.8 48.1
482.3 134.2 48.0
482.3 131.9 48.0
486.3 126.3 47.9
496.3 127.2 47.8
494.2 124.2 47.8
504.2 124.9 47.7
504.2 119.9 47.7
508.2 118.6 47.6
513.2 115.0 47.6
519.2 114.1 47.5
525.2 113.0 47.4
529.2 111.4 47.4
531.1 106.5 47.3
547.1 99.1 47.1
547.1 93.5 47.1
558.1 92.8 47.0
560.0 90.2 47.0
566.0 88.4 46.9
576.0 87.0 46.8
578.0 84.3 46.7
584.0 82.2 46.7
588.0 79.6 46.6
590.0 76.8 46.6
594.9 74.3 46.5
600.9 71.8 46.4
606.9 69.3 46.4
612.9 66.6 46.3
618.9 60.5 46.2
626.8 57.8 46.1
632.8 54.9 46.0
632.8 51.4 46.0
643.8 45.0 45.9
645.8 41.6 45.8
649.7 38.2 45.8
659.7 34.8 45.7
659.7 31.2 45.7
663.7 27.6 45.6
663.6 23.9 45.6
669.6 12.7 45.5
669.6 9.0 45.5
663.5 5.5 45.6
659.5 1.9 45.6
665.5 -2.0 45.5
661.5 -5.5 45.6
653.5 -8.6 45.7
659.4 -12.7 45.6
655.4 -16.0 45.7
653.4 -19.5 45.7
653.3 -26.7 45.7
651.3 -30.1 45.7
645.3 -33.0 45.8
639.2 -46.3 45.8
641.2 -50.1 45.8
633.2 -52.3 45.9
635.2 -56.1 45.8
635.1 -63.1 45.8
632.1 -66.0 45.9
628.1 -68.6 45.9
630.1 -72.5 45.9
622.1 -74.2 46.0
626.0 -78.5 45.9
624.0 -81.4 45.9
628.0 -89.2 45.9
622.0 -91.1 46.0
620.0 -93.9 46.0
617.9 -96.8 46.0
619.9 -100.7 46.0
609.9 -101.2 46.1
611.9 -105.1 46.1
611.8 -111.7 46.1
605.8 -113.1 46.1
607.8 -117.0 46.1
607.8 -120.2 46.1
609.8 -124.2 46.1
605.8 -126.1 46.1
595.8 -125.8 46.2
595.7 -129.0 46.2
597.7 -132.9 46.2
595.7 -138.6 46.2
593.7 -141.0 46.2
591.7 -143.3 46.3
593.6 -147.3 46.2
593.6 -150.5 46.2
590.6 -152.4 46.3
588.6 -160.9 46.3
586.5 -166.3 46.3
586.5 -169.4 46.3
578.5 -168.7 46.4
582.5 -173.7 46.3
580.5 -175.8 46.4
576.5 -176.9 46.4
578.4 -180.9 46.4
572.4 -180.9 46.4
572.4 -186.9 46.4
572.4 -189.9 46.4
570.4 -191.8 46.5
572.4 -195.9 46.4
568.3 -196.7 46.5
562.3 -199.3 46.5
558.3 -199.9 46.6
556.3 -207.4 46.6
558.2 -217.3 46.6
554.2 -220.5 46.6
550.2 -220.8 46.7
552.2 -225.0 46.6
547.2 -224.5 46.7
545.1 -231.6 46.7
545.1 -234.4 46.7
549.1 -240.0 46.6
547.1 -241.4 46.7
541.1 -245.5 46.7
541.0 -248.3 46.7
545.0 -256.8 46.7
541.0 -256.6 46.7
539.0 -257.8 46.7
535.0 -257.5 46.8
535.0 -260.2 46.8
537.0 -264.5 46.8
531.0 -262.5 46.8
530.9 -265.2 46.8
528.9 -274.3 46.8
524.9 -276.3 46.9
522.9 -279.8 46.9
510.7 -307.6 47.0
510.6 -320.4 47.0
505.6 -325.3 47.1
503.6 -325.7 47.1
499.5 -333.8 47.1
499.5 -336.3 47.1
497.5 -336.5 47.1
491.5 -349.1 47.2
489.4 -353.9 47.2
491.4 -361.1 47.2
487.4 -358.7 47.2
487.4 -363.4 47.2
343.8 217.0 48.5
363.6 188.1 48.1
370.6 189.9 47.9
373.6 189.5 47.9
372.6 187.2 47.9
376.6 186.0 47.8
383.6 190.2 47.7
380.6 184.7 47.7
384.6 184.7 47.6
387.6 183.9 47.6
395.6 188.4 47.4
389.6 182.2 47.5
391.6 182.1 47.5
396.6 184.1 47.4
392.6 179.6 47.5
397.6 181.5 47.4
397.5 178.2 47.4
399.5 177.9 47.3
395.5 173.5 47.4
402.5 173.2 47.3
405.5 173.5 47.2
410.5 175.0 47.1
410.5 173.2 47.1
407.5 169.5 47.2
411.5 170.3 47.1
412.5 167.4 47.1
411.5 165.0 47.1
418.5 165.6 47.0
422.5 166.1 46.9
419.4 162.5 46.9
423.5 163.0 46.9
429.4 162.6 46.7
427.4 159.6 46.8
435.4 162.0 46.6
433.4 159.0 46.6
435.4 158.1 46.6
437.4 157.1 46.6
435.4 152.2 46.6
443.4 152.2 46.4
449.4 153.0 46.3
449.4 146.9 46.3
451.3 145.7 46.3
459.4 147.1 46.1
463.3 142.4 46.0
467.3 141.9 46.0
472.3 139.5 45.9
474.3 138.0 45.8
476.3 136.5 45.8
476.3 134.3 45.8
484.3 134.9 45.6
482.3 131.9 45.6
482.2 129.6 45.6
490.2 130.0 45.5
490.2 127.6 45.5
496.2 127.2 45.4
500.2 121.2 45.3
504.2 119.9 45.2
515.2 118.1 45.0
517.2 116.1 44.9
517.1 113.5 44.9
523.1 112.5 44.8
531.1 111.9 44.7
531.1 109.2 44.7
523.1 104.6 44.8
537.1 105.2 44.5
543.1 101.1 44.4
551.1 100.0 44.2
552.0 97.3 44.2
560.0 93.1 44.1
564.0 90.9 44.0
570.0 89.0 43.9
574.0 86.7 43.8
576.0 84.0 43.7
577.9 81.3 43.7
587.9 79.6 43.5
591.9 77.1 43.4
592.9 74.0 43.4
598.9 71.6 43.3
604.9 69.1 43.1
610.9 66.4 43.0
606.8 62.8 43.1
618.8 60.5 42.9
624.8 57.7 42.7
626.8 54.4 42.7
635.8 51.6 42.5
645.7 45.1 42.3
645.7 41.6 42.3
657.7 38.4 42.1
653.7 34.7 42.1
659.6 31.2 42.0
663.6 27.6 41.9
665.6 23.9 41.9
665.6 20.2 41.9
667.5 12.8 41.8
665.5 9.1 41.9
665.5 5.4 41.9
659.5 1.9 42.0
661.4 -1.8 41.9
663.4 -5.6 41.9
657.4 -8.9 42.0
659.4 -12.7 42.0
657.4 -16.2 42.0
651.3 -22.9 42.1
651.3 -26.5 42.1
649.3 -29.9 42.1
649.3 -33.4 42.1
647.2 -36.8 42.2
647.2 -40.3 42.2
645.2 -43.6 42.2
643.2 -46.9 42.2
639.2 -49.8 42.3
637.1 -53.0 42.3
641.1 -57.2 42.3
632.1 -59.1 42.4
633.1 -62.7 42.4
628.0 -72.1 42.5
630.0 -75.9 42.4
626.0 -78.5 42.5
626.0 -81.9 42.5
626.0 -85.3 42.5
621.9 -87.7 42.6
619.9 -90.6 42.6
623.9 -95.0 42.5
617.9 -96.8 42.7
617.9 -100.1 42.6
613.8 -105.6 42.7
607.8 -107.2 42.8
607.8 -110.4 42.8
611.8 -115.0 42.7
607.8 -117.0 42.8
601.7 -121.5 42.9
607.7 -126.8 42.8
599.7 -127.2 43.0
597.7 -129.7 43.0
597.7 -132.9 43.0
597.7 -136.1 43.0
597.6 -139.3 43.0
591.6 -140.2 43.1
593.6 -144.1 43.1
588.5 -157.8 43.1
586.5 -160.0 43.2
584.5 -165.3 43.2
586.5 -169.4 43.2
582.5 -170.6 43.3
582.4 -173.7 43.2
576.4 -173.8 43.4
576.4 -176.9 43.4
578.4 -180.9 43.3
574.4 -181.9 43.4
572.4 -183.9 43.4
572.3 -189.9 43.4
570.3 -191.8 43.5
570.3 -194.8 43.5
570.3 -197.8 43.5
562.3 -196.3 43.6
562.3 -205.1 43.6
562.2 -211.0 43.6
560.2 -215.6 43.6
560.2 -218.5 43.6
556.2 -221.8 43.7
554.2 -223.4 43.7
554.1 -226.3 43.7
550.1 -226.5 43.8
552.1 -233.5 43.8
550.1 -235.0 43.8
549.0 -242.8 43.8
545.0 -248.4 43.9
545.0 -251.2 43.9
545.0 -256.8 43.9
537.0 -253.5 44.0
538.9 -257.8 44.0
533.0 -255.9 44.1
534.9 -260.2 44.1
526.9 -264.6 44.2
524.9 -268.3 44.3
528.9 -274.3 44.2
524.8 -278.9 44.2
522.8 -279.8 44.3
524.8 -286.9 44.2
520.8 -291.2 44.3
518.8 -292.0 44.3
514.7 -293.5 44.4
508.7 -295.6 44.5
508.7 -300.6 44.5
514.7 -309.0 44.4
510.7 -307.6 44.5
512.6 -312.2 44.4
512.6 -317.3 44.4
508.6 -315.8 44.5
508.6 -318.3 44.5
508.6 -320.9 44.5
510.5 -328.0 44.5
505.6 -325.3 44.6
503.6 -325.7 44.6
499.5 -331.4 44.7
499.5 -333.8 44.7
503.4 -345.7 44.6
342.8 215.8 47.3
342.7 210.8 47.3
345.7 213.0 47.2
347.7 213.9 47.1
348.7 209.9 47.1
349.7 205.7 47.1
353.7 207.3 47.0
360.7 207.7 46.8
348.6 194.3 47.1
357.7 201.9 46.8
362.6 198.4 46.7
364.6 196.1 46.6
359.6 190.1 46.8
368.6 196.9 46.5
370.6 194.3 46.5
376.6 186.0 46.3
376.6 183.0 46.3
384.6 184.7 46.1
385.6 183.9 46.1
392.6 184.4 45.9
393.5 181.9 45.8
391.5 178.8 45.9
397.5 181.5 45.7
400.5 182.0 45.6
405.4 166.5 45.5
414.5 170.4 45.2
409.4 165.5 45.4
413.4 166.2 45.3
413.4 164.4 45.3
419.4 166.2 45.1
420.4 164.9 45.1
415.4 160.2 45.2
423.4 163.0 45.0
427.4 161.5 44.9
425.4 158.5 44.9
433.4 160.9 44.7
435.4 160.0 44.7
433.4 155.1 44.7
439.4 154.2 44.5
437.4 151.2 44.6
437.3 145.3 44.6
449.3 144.8 44.3
457.3 146.3 44.0
467.3 144.1 43.8
467.3 141.9 43.8
470.3 140.9 43.7
474.3 140.3 43.6
474.3 138.0 43.6
474.2 135.8 43.6
484.3 137.3 43.3
482.2 134.2 43.3
480.2 131.2 43.4
