486.0 -351.6 85.0
507.2 -313.8 84.8
504.2 -315.8 84.5
492.0 -351.6 83.2
487.9 -356.3 82.8
521.7 114.5 83.9
527.7 105.5 84.5
531.7 103.8 84.9
535.6 -249.4 85.0
533.6 -256.0 84.8
531.6 -257.1 84.6
527.5 -259.3 84.2
509.2 -313.3 82.5
500.2 -316.6 81.6
507.1 -326.4 82.3
489.9 -356.4 80.6
481.9 -356.1 79.9
515.7 115.5 80.8
517.7 110.9 81.0
517.6 108.3 81.0
523.6 107.2 81.5
556.6 95.2 84.3
558.6 92.7 84.5
566.9 -192.7 85.0
566.9 -195.7 85.0
556.9 -201.7 84.1
560.9 -206.9 84.5
556.8 -207.4 84.1
556.8 -210.3 84.1
550.8 -215.2 83.6
531.5 -267.9 81.9
527.4 -270.0 81.5
523.4 -277.2 81.2
504.1 -315.8 79.5
504.1 -323.3 79.5
500.0 -328.9 79.1
496.0 -336.8 78.8
515.6 115.5 78.3
513.6 112.4 78.1
523.6 109.8 78.9
521.6 106.7 78.7
527.6 105.6 79.2
531.6 103.8 79.5
558.6 92.7 81.6
560.5 87.3 81.8
572.6 86.3 82.7
572.5 83.3 82.7
578.5 81.2 83.2
593.5 77.1 84.3
597.5 71.3 84.6
601.5 68.6 84.9
568.9 -190.8 82.2
566.9 -192.7 82.0
558.9 -194.1 81.4
556.9 -198.8 81.2
558.8 -202.8 81.4
560.8 -206.9 81.5
550.7 -215.2 80.7
549.7 -217.4 80.7
547.7 -218.9 80.5
529.4 -260.9 79.0
533.4 -266.8 79.3
529.4 -266.3 79.0
525.4 -268.3 78.7
527.4 -272.7 78.9
521.4 -275.5 78.4
523.3 -282.5 78.5
519.3 -286.8 78.2
500.0 -328.9 76.7
502.0 -338.5 76.8
492.0 -332.3 76.0
495.9 -346.5 76.3
502.6 124.2 74.8
508.6 118.6 75.2
513.6 115.0 75.6
513.6 112.4 75.6
521.6 111.9 76.1
527.6 110.9 76.5
523.6 107.2 76.3
527.6 105.6 76.5
535.6 104.7 77.1
533.6 101.6 77.0
554.6 100.6 78.4
554.5 92.0 78.4
562.5 90.5 79.0
570.5 89.0 79.6
570.5 86.0 79.6
570.5 83.0 79.6
576.5 80.9 80.0
592.5 73.9 81.1
595.4 71.1 81.3
601.4 68.6 81.7
601.4 65.4 81.7
607.4 62.7 82.2
613.4 60.0 82.6
631.4 51.2 83.8
636.3 44.6 84.2
642.3 41.4 84.6
644.3 37.9 84.7
643.9 -25.7 84.7
643.9 -29.3 84.7
641.9 -32.6 84.5
641.9 -36.1 84.5
639.8 -39.3 84.4
641.8 -43.1 84.5
616.6 -79.6 82.7
614.4 -102.4 82.5
614.4 -105.7 82.5
606.4 -106.6 81.9
606.4 -109.9 81.9
602.4 -115.1 81.6
560.9 -189.4 78.6
562.8 -196.4 78.8
556.8 -204.5 78.3
556.8 -207.4 78.3
554.7 -209.1 78.2
550.7 -212.3 77.9
552.7 -216.4 78.0
543.6 -224.7 77.4
519.3 -271.2 75.6
511.2 -292.4 75.0
493.9 -332.1 73.8
495.9 -341.7 73.9
491.9 -344.3 73.6
489.8 -351.6 73.5
493.8 -358.7 73.8
500.6 126.1 72.2
498.6 123.0 72.1
502.6 121.8 72.3
502.6 119.3 72.3
508.6 118.6 72.7
517.6 113.5 73.3
517.5 110.9 73.3
527.5 108.2 73.9
529.5 106.0 74.0
556.5 95.2 75.7
564.5 90.9 76.2
566.5 88.3 76.3
574.5 86.7 76.8
574.4 83.7 76.8
592.4 77.0 78.0
595.4 71.1 78.1
603.4 68.8 78.7
607.4 66.0 78.9
629.3 51.1 80.3
633.3 47.9 80.5
636.3 44.6 80.7
638.3 41.2 80.8
646.3 38.0 81.3
664.1 16.5 82.4
664.1 12.8 82.4
645.9 -25.9 81.3
643.9 -29.3 81.1
643.8 -32.8 81.1
641.8 -36.1 81.0
643.8 -39.9 81.1
641.8 -43.1 81.0
637.8 -46.1 80.7
635.7 -49.2 80.6
637.7 -53.0 80.7
618.5 -90.1 79.5
616.4 -96.3 79.3
606.4 -96.8 78.7
614.4 -102.4 79.2
606.4 -103.3 78.7
606.4 -106.6 78.7
606.3 -113.1 78.7
604.3 -115.7 78.5
564.8 -188.6 76.0
564.8 -194.5 76.0
560.8 -195.2 75.7
564.8 -200.4 76.0
556.7 -201.6 75.5
554.7 -206.2 75.3
545.6 -226.0 74.7
515.2 -291.0 72.8
507.1 -301.2 72.2
495.8 -351.4 71.5
487.7 -361.1 71.0
490.6 127.6 69.2
502.6 124.2 69.9
502.6 121.8 69.9
511.6 119.5 70.4
511.5 116.9 70.4
517.5 110.9 70.7
525.5 107.7 71.1
529.5 106.0 71.3
545.5 98.7 72.2
556.5 95.2 72.8
556.4 92.4 72.8
560.4 90.2 73.1
564.4 88.0 73.3
570.4 86.0 73.6
576.4 84.0 73.9
603.4 72.0 75.4
605.3 69.0 75.5
605.3 65.8 75.5
634.3 48.0 77.1
636.2 44.6 77.2
642.2 41.4 77.6
648.2 38.1 77.9
646.2 34.4 77.8
666.1 16.5 78.9
645.8 -29.5 77.7
635.8 -35.3 77.1
639.7 -39.3 77.4
639.7 -42.8 77.3
637.7 -46.1 77.2
637.7 -49.5 77.2
639.6 -60.4 77.3
612.4 -95.2 75.8
606.4 -96.8 75.4
612.3 -101.8 75.8
610.3 -104.5 75.7
606.3 -106.6 75.4
612.3 -111.7 75.8
606.3 -116.4 75.4
608.2 -120.3 75.5
606.2 -129.4 75.4
566.7 -198.6 73.1
562.7 -199.3 72.9
558.7 -205.7 72.7
554.7 -206.2 72.5
552.6 -216.4 72.3
552.6 -219.3 72.3
549.6 -220.2 72.2
545.6 -226.0 71.9
547.5 -233.0 72.0
545.5 -237.2 71.9
515.1 -291.0 70.2
517.1 -295.4 70.3
511.1 -294.9 69.9
511.0 -307.7 69.9
507.0 -311.3 69.7
487.7 -363.4 68.6
478.6 132.7 66.3
486.6 128.6 66.6
494.6 128.9 67.0
496.5 124.8 67.1
504.5 124.9 67.5
500.5 121.2 67.3
506.5 120.5 67.6
511.5 119.5 67.8
513.5 117.5 67.9
517.5 113.5 68.1
519.5 111.4 68.2
521.5 109.4 68.3
525.5 107.7 68.5
529.5 106.0 68.7
533.4 104.3 68.9
564.4 90.9 70.3
568.4 88.7 70.5
574.4 86.7 70.8
568.3 82.7 70.5
597.3 74.5 71.9
603.3 68.8 72.2
607.3 66.0 72.4
638.2 51.7 73.9
638.2 48.2 73.9
642.2 44.9 74.1
648.2 41.6 74.3
650.2 38.1 74.4
666.1 20.2 75.2
664.0 16.5 75.1
666.0 9.1 75.2
662.0 5.5 75.0
645.8 -25.9 74.2
643.7 -36.3 74.0
645.7 -40.1 74.1
637.7 -42.6 73.7
637.6 -46.0 73.7
641.6 -50.2 73.9
637.6 -53.0 73.7
637.5 -63.5 73.7
614.3 -99.0 72.6
618.3 -103.5 72.8
614.3 -105.7 72.6
612.3 -108.4 72.5
608.2 -110.5 72.3
606.2 -113.1 72.2
558.6 -205.7 69.8
558.6 -208.6 69.8
556.6 -210.3 69.7
560.6 -215.6 69.9
543.5 -221.9 69.0
543.5 -235.8 69.0
543.4 -238.6 69.0
543.4 -244.2 69.0
543.4 -249.8 69.0
511.1 -294.9 67.4
509.0 -305.7 67.3
509.0 -310.8 67.3
506.0 -310.3 67.1
503.9 -318.3 67.0
499.9 -319.1 66.8
503.9 -325.7 67.0
478.6 141.8 64.0
478.5 132.7 64.0
500.5 128.5 64.9
500.5 126.1 64.9
502.5 124.3 64.9
504.5 122.4 65.0
506.5 120.5 65.1
515.5 120.6 65.5
515.5 118.1 65.5
515.5 115.5 65.5
525.5 115.6 65.9
525.5 113.0 65.9
527.4 108.2 65.9
535.4 107.5 66.3
541.4 97.9 66.5
547.4 96.3 66.7
560.4 93.1 67.3
566.4 91.3 67.5
568.3 88.7 67.6
566.3 85.4 67.5
578.3 84.3 68.0
582.3 78.8 68.1
595.3 77.4 68.7
603.3 72.0 69.0
601.2 68.6 68.9
613.2 66.6 69.4
636.2 51.6 70.3
642.1 44.9 70.5
642.1 41.4 70.5
650.1 38.1 70.9
668.0 16.4 71.6
672.0 12.6 71.7
665.9 9.1 71.5
665.9 5.4 71.5
643.7 -25.7 70.5
641.7 -32.5 70.4
647.7 -36.8 70.7
643.6 -39.9 70.5
643.6 -43.4 70.5
643.6 -46.9 70.5
637.6 -49.5 70.3
635.6 -52.7 70.2
637.5 -56.5 70.2
639.5 -60.4 70.3
612.3 -88.6 69.2
614.3 -99.0 69.3
610.3 -101.2 69.1
606.2 -103.3 68.9
614.2 -109.0 69.2
608.2 -110.5 69.0
606.1 -119.6 68.9
562.6 -211.0 67.0
554.6 -211.9 66.7
552.5 -216.4 66.6
554.5 -220.6 66.7
549.5 -228.7 66.5
547.4 -233.0 66.4
543.4 -238.6 66.2
539.3 -246.8 66.1
535.3 -252.1 65.9
506.9 -311.3 64.7
506.9 -321.4 64.7
508.8 -328.5 64.7
505.8 -327.9 64.6
499.8 -341.2 64.4
497.7 -343.9 64.3
476.5 136.5 61.6
484.5 130.2 61.9
488.5 129.3 62.0
496.5 127.2 62.3
502.5 126.7 62.5
502.5 121.8 62.5
515.5 120.6 62.9
511.4 117.0 62.8
509.4 113.9 62.7
525.4 113.0 63.2
533.4 109.7 63.5
558.3 95.6 64.3
564.3 93.9 64.5
564.3 90.9 64.5
572.3 89.3 64.8
580.3 84.6 65.0
582.3 81.8 65.1
603.2 72.0 65.8
601.2 68.6 65.7
613.2 66.6 66.1
634.1 54.9 66.8
638.1 48.2 66.9
642.1 44.9 67.0
648.1 41.6 67.2
646.0 38.0 67.1
666.0 27.6 67.8
669.9 16.4 67.9
663.8 1.7 67.7
665.8 -2.0 67.7
663.8 -9.3 67.7
641.6 -36.1 66.9
643.6 -39.9 67.0
641.6 -43.1 66.9
643.5 -46.9 67.0
637.5 -49.5 66.8
637.5 -53.0 66.8
635.5 -56.2 66.7
614.2 -105.7 65.9
610.2 -107.8 65.8
614.1 -112.3 65.9
606.1 -113.1 65.7
602.1 -115.1 65.5
604.1 -119.0 65.6
604.1 -122.2 65.6
604.1 -125.4 65.6
554.5 -220.5 63.8
547.4 -227.4 63.6
545.3 -240.0 63.5
539.3 -244.1 63.3
537.3 -253.6 63.2
531.2 -257.1 63.0
506.8 -326.4 62.1
501.8 -323.6 62.0
501.8 -333.5 62.0
499.7 -341.2 61.9
495.7 -341.6 61.8
501.7 -350.9 61.9
493.7 -349.0 61.7
484.5 139.6 59.6
480.5 131.1 59.5
484.5 130.3 59.6
494.5 129.0 59.8
500.5 128.5 60.0
502.4 126.7 60.0
502.4 124.3 60.0
504.4 122.4 60.1
511.4 122.0 60.2
506.4 118.0 60.1
517.4 116.1 60.4
519.4 114.0 60.4
527.4 113.5 60.6
529.4 111.4 60.7
529.4 108.7 60.7
535.3 107.5 60.8
562.3 93.5 61.5
560.3 90.2 61.5
574.3 89.7 61.8
580.2 84.6 62.0
582.2 81.8 62.0
601.2 71.8 62.5
609.2 69.5 62.7
609.1 66.2 62.7
638.1 51.7 63.4
636.0 48.1 63.3
650.0 38.1 63.7
669.9 27.6 64.2
669.9 20.2 64.2
667.9 16.4 64.1
667.9 12.7 64.1
669.8 5.2 64.2
663.7 -9.3 64.0
647.6 -36.8 63.5
649.5 -40.6 63.6
647.5 -43.9 63.5
643.5 -46.9 63.4
641.5 -50.1 63.4
637.5 -53.0 63.3
635.4 -59.6 63.2
614.1 -102.3 62.6
614.1 -109.0 62.6
610.1 -111.1 62.5
610.1 -114.4 62.5
606.1 -116.4 62.4
604.0 -122.2 62.3
556.4 -221.8 61.0
552.4 -222.1 60.9
550.4 -232.2 60.8
547.3 -241.4 60.8
543.3 -247.0 60.6
533.2 -253.2 60.4
537.2 -261.8 60.5
527.1 -264.6 60.2
531.1 -270.6 60.3
527.1 -275.3 60.2
491.6 -346.7 59.2
485.6 -361.0 59.0
478.5 137.3 57.1
484.4 132.6 57.2
488.4 131.7 57.3
496.4 129.6 57.5
500.4 126.1 57.5
506.4 125.5 57.6
504.4 122.4 57.6
513.4 120.1 57.7
515.4 118.1 57.8
517.3 113.5 57.8
523.3 112.5 57.9
531.3 111.9 58.1
531.3 109.2 58.1
533.3 104.3 58.1
556.3 98.1 58.5
558.2 95.6 58.5
564.2 90.9 58.6
574.2 89.7 58.8
580.2 87.7 58.9
599.2 78.0 59.2
603.1 68.8 59.3
615.1 60.2 59.5
640.0 48.3 59.9
642.0 44.9 60.0
650.0 41.7 60.1
669.9 27.6 60.5
669.9 23.9 60.5
673.8 20.1 60.5
669.8 12.7 60.4
667.8 9.0 60.4
667.7 -9.6 60.4
649.5 -33.5 60.0
651.5 -37.3 60.1
645.5 -40.1 59.9
643.5 -43.4 59.9
641.4 -46.6 59.9
639.4 -49.8 59.8
639.4 -53.3 59.8
637.4 -56.5 59.8
635.4 -59.6 59.7
633.3 -66.2 59.7
633.3 -69.7 59.7
610.1 -104.5 59.2
602.1 -105.4 59.1
612.0 -111.7 59.3
608.0 -113.7 59.2
608.0 -117.0 59.2
608.0 -120.3 59.2
608.0 -123.5 59.2
611.9 -128.2 59.2
550.2 -243.6 58.0
539.2 -244.1 57.8
539.2 -246.8 57.8
533.2 -250.5 57.7
533.2 -253.2 57.7
533.1 -258.7 57.7
533.1 -266.8 57.7
529.1 -274.3 57.6
527.0 -275.3 57.5
523.0 -285.1 57.5
522.9 -293.0 57.4
476.4 136.5 54.8
484.4 134.9 54.9
484.4 132.6 54.9
488.4 131.7 55.0
490.4 130.0 55.0
500.4 126.1 55.1
506.4 125.5 55.1
504.3 122.4 55.1
509.3 118.9 55.2
525.3 113.0 55.3
529.3 111.4 55.4
533.3 109.7 55.4
535.3 107.5 55.4
545.2 98.7 55.5
556.2 98.1 55.6
566.2 94.2 55.7
566.2 91.3 55.7
574.2 89.7 55.8
574.2 86.7 55.8
595.1 77.4 56.0
603.1 75.3 56.1
605.1 72.3 56.1
638.0 51.7 56.4
635.9 48.1 56.4
637.9 44.7 56.4
645.9 41.6 56.5
671.8 20.2 56.7
669.8 16.4 56.7
673.7 12.6 56.8
669.7 5.2 56.7
665.7 1.7 56.7
649.5 -33.5 56.4
645.4 -36.5 56.4
645.4 -40.1 56.4
645.4 -43.7 56.4
645.4 -47.2 56.4
641.4 -50.1 56.3
637.3 -53.0 56.3
639.3 -56.8 56.3
635.3 -59.6 56.3
632.2 -72.9 56.2
616.1 -96.2 56.0
612.0 -105.1 56.0
614.0 -109.0 56.0
614.0 -112.3 56.0
610.0 -117.6 55.9
609.9 -120.9 55.9
605.9 -122.9 55.9
545.2 -240.0 55.1
541.2 -245.5 55.1
539.2 -246.8 55.0
541.1 -256.6 55.0
535.1 -260.2 55.0
529.1 -263.6 54.9
529.1 -266.3 54.9
533.0 -272.2 54.9
529.0 -274.3 54.9
525.0 -278.9 54.8
521.0 -283.4 54.8
518.9 -294.6 54.8
510.8 -307.6 54.7
484.4 134.9 52.6
484.4 132.6 52.6
492.4 133.1 52.6
492.4 130.7 52.6
502.3 124.3 52.6
502.3 121.8 52.6
521.3 114.6 52.7
521.2 112.0 52.7
633.9 54.9 52.9
637.9 51.7 52.9
637.9 48.2 52.9
645.9 45.1 52.9
651.9 41.8 53.0
649.8 38.2 53.0
655.8 34.7 53.0
669.6 5.2 53.0
667.6 1.6 53.0
647.4 -33.2 52.9
647.4 -36.8 52.9
647.4 -40.4 52.8
647.4 -43.9 52.8
641.3 -46.6 52.8
639.3 -49.8 52.8
641.3 -53.6 52.8
643.3 -57.5 52.8
635.3 -59.6 52.8
635.2 -63.1 52.8
632.2 -69.4 52.8
612.0 -105.1 52.7
614.0 -109.0 52.7
609.9 -114.3 52.6
605.9 -116.3 52.6
611.9 -121.6 52.6
607.9 -126.8 52.6
595.8 -138.6 52.6
537.1 -250.8 52.3
539.1 -255.1 52.3
541.1 -259.4 52.3
537.0 -261.8 52.2
527.0 -262.0 52.2
529.0 -266.3 52.2
525.0 -271.0 52.2
530.9 -286.8 52.2
526.9 -288.6 52.2
518.9 -289.4 52.2
518.8 -305.0 52.1
512.8 -309.6 52.1
510.7 -320.4 52.1
505.7 -325.3 52.1
506.6 -328.9 52.1
639.9 51.8 49.4
639.8 48.3 49.4
643.8 45.0 49.4
651.8 41.8 49.4
649.8 38.2 49.4
667.7 27.6 49.3
673.6 12.6 49.2
649.4 -33.5 49.3
643.3 -39.8 49.3
647.3 -43.9 49.3
639.3 -46.3 49.3
637.3 -49.5 49.3
637.2 -53.0 49.3
633.2 -55.8 49.3
637.2 -60.0 49.3
637.2 -63.5 49.3
630.0 -86.2 49.3
612.0 -101.8 49.4
605.9 -103.3 49.4
613.9 -109.0 49.3
615.9 -112.9 49.3
609.9 -114.3 49.4
607.9 -117.0 49.4
605.8 -122.8 49.4
607.8 -126.8 49.4
603.8 -128.7 49.4
530.9 -276.0 49.5
530.9 -278.7 49.5
520.9 -275.5 49.6
526.8 -288.6 49.5
516.9 -287.6 49.6
518.8 -294.6 49.6
512.8 -296.8 49.6
516.8 -303.1 49.5
512.7 -307.0 49.6
510.7 -307.6 49.6
510.7 -315.3 49.6
505.6 -325.3 49.6
503.6 -325.7 49.6
505.6 -332.8 49.6
499.5 -348.6 49.6
491.4 -356.3 49.6
491.4 -361.1 49.6
489.4 -365.9 49.6
637.8 51.7 46.0
639.8 48.3 45.9
647.8 45.2 45.8
649.8 41.7 45.8
651.7 38.2 45.8
655.7 34.7 45.7
649.3 -33.5 45.7
647.3 -36.8 45.7
643.3 -39.8 45.8
643.3 -43.4 45.8
645.2 -47.2 45.7
637.2 -49.5 45.8
645.2 -54.3 45.7
639.2 -56.8 45.8
639.2 -60.3 45.8
609.9 -107.8 46.1
611.8 -111.7 46.1
609.8 -114.3 46.1
607.8 -120.2 46.1
607.8 -123.5 46.1
605.8 -126.1 46.1
512.7 -309.6 47.0
510.6 -320.4 47.0
501.6 -321.1 47.1
505.6 -327.8 47.1
506.5 -333.9 47.0
497.5 -339.0 47.1
497.4 -358.6 47.1
489.4 -353.9 47.2
635.8 51.6 42.5
645.7 48.7 42.3
645.7 45.1 42.3
651.7 38.2 42.2
673.5 12.6 41.7
649.3 -26.3 42.1
643.2 -43.4 42.2
645.2 -47.2 42.2
643.2 -50.4 42.2
639.1 -53.3 42.3
639.1 -56.8 42.3
635.1 -59.6 42.4
632.1 -62.5 42.4
635.0 -70.0 42.4
630.0 -72.5 42.4
630.0 -75.9 42.4
627.9 -89.2 42.5
613.8 -108.9 42.7
609.8 -111.0 42.8
607.8 -113.7 42.8
605.8 -116.3 42.9
605.8 -119.6 42.9
609.7 -124.2 42.8
601.7 -124.7 42.9
597.6 -142.5 43.0
595.6 -144.9 43.0
618.8 60.6 39.5
637.7 55.2 39.0
645.7 45.1 38.8
643.6 41.5 38.8
655.6 34.8 38.5
659.6 31.2 38.4
675.5 20.2 37.9
653.3 -15.9 38.5
655.3 -19.6 38.4
655.3 -23.3 38.4
653.2 -26.7 38.4
643.2 -39.8 38.7
641.1 -46.6 38.7
637.1 -53.0 38.8
637.1 -56.5 38.8
637.0 -60.0 38.8
635.0 -63.1 38.9
630.0 -69.0 39.0
633.0 -73.1 38.9
613.8 -105.6 39.4
605.7 -113.1 39.6
607.7 -123.5 39.5
590.6 -136.6 40.0
595.6 -141.7 39.9
597.6 -145.7 39.8
637.6 48.2 35.5
645.6 45.1 35.2
649.6 41.8 35.1
651.6 38.2 35.0
655.5 34.8 34.8
659.5 31.2 34.7
655.3 -12.4 34.8
657.2 -16.2 34.7
653.2 -23.1 34.8
651.2 -26.5 34.9
643.1 -39.8 35.2
637.0 -53.0 35.4
641.0 -57.1 35.2
637.0 -60.0 35.3
633.0 -62.7 35.5
635.0 -66.6 35.4
631.9 -69.4 35.5
631.9 -72.9 35.5
613.8 -102.3 36.1
615.7 -109.5 36.0
603.7 -109.2 36.4
609.7 -114.3 36.2
611.7 -118.2 36.1
603.6 -122.2 36.4
595.6 -135.4 36.7
593.5 -141.0 36.7
590.5 -142.9 36.8
593.5 -147.3 36.7
610.7 66.4 33.2
614.7 63.5 33.0
616.7 60.4 32.9
649.5 41.8 31.5
655.5 38.4 31.2
657.5 34.8 31.1
657.5 31.2 31.1
657.2 -12.5 31.1
659.2 -16.3 31.0
651.2 -19.3 31.3
653.2 -23.1 31.2
639.0 -46.3 31.8
633.0 -48.9 32.0
639.0 -53.3 31.8
630.0 -55.3 32.2
634.9 -59.6 31.9
631.9 -62.5 32.1
631.9 -66.0 32.1
631.9 -69.4 32.1
629.9 -72.5 32.1
631.9 -76.3 32.0
611.7 -101.7 32.9
613.6 -112.2 32.8
609.6 -114.3 32.9
609.6 -117.6 32.9
607.6 -120.2 33.0
611.6 -124.8 32.8
603.6 -125.4 33.2
597.5 -136.1 33.4
595.5 -141.7 33.5
595.5 -144.9 33.5
593.4 -153.6 33.6
508.4 -328.4 36.9
501.4 -333.5 37.2
499.4 -336.3 37.3
501.3 -343.4 37.2
491.3 -346.7 37.6
493.3 -358.7 37.5
493.2 -363.5 37.5
495.2 -373.2 37.4
620.6 60.7 29.4
645.5 45.2 28.1
651.5 41.9 27.8
645.5 38.1 28.1
657.4 34.8 27.5
657.2 -5.2 27.4
653.1 -15.8 27.6
655.1 -19.6 27.5
655.1 -23.3 27.5
645.0 -47.2 28.0
640.9 -50.1 28.2
631.9 -55.6 28.6
632.9 -59.2 28.6
629.9 -62.1 28.7
632.8 -69.6 28.6
631.8 -72.9 28.6
627.8 -82.3 28.8
627.7 -89.1 28.8
611.6 -105.0 29.6
605.6 -109.8 29.9
607.6 -113.7 29.7
609.6 -117.6 29.6
605.6 -119.6 29.8
609.5 -124.2 29.6
601.4 -144.1 30.0
593.4 -147.3 30.4
595.4 -151.3 30.3
591.4 -152.8 30.5
586.3 -166.2 30.7
586.3 -169.3 30.7
553.9 -234.9 32.2
546.9 -241.4 32.6
542.8 -249.7 32.8
538.8 -255.0 33.0
536.8 -256.3 33.1
536.8 -261.8 33.1
530.7 -265.2 33.4
528.7 -266.2 33.5
528.7 -274.3 33.4
532.7 -280.3 33.2
524.7 -278.9 33.6
520.6 -283.3 33.8
518.6 -289.4 33.9
510.5 -307.6 34.3
510.4 -320.4 34.3
506.4 -326.4 34.5
506.4 -328.9 34.5
501.4 -333.5 34.7
499.3 -336.3 34.8
493.3 -349.0 35.1
491.2 -356.3 35.2
487.2 -363.4 35.4
476.1 138.8 34.4
476.1 134.3 34.4
608.6 66.2 26.7
618.6 63.9 26.1
643.5 48.6 24.7
659.1 -5.3 23.7
657.1 -16.2 23.8
642.9 -46.9 24.6
638.9 -49.8 24.8
638.9 -53.3 24.8
634.9 -56.1 25.0
636.8 -59.9 24.9
632.8 -62.7 25.1
634.8 -66.5 25.0
632.8 -69.6 25.1
632.8 -73.1 25.1
629.8 -75.9 25.3
627.7 -85.7 25.4
615.6 -106.2 26.0
607.6 -110.4 26.5
609.5 -114.3 26.4
611.5 -118.2 26.2
611.5 -121.5 26.2
605.5 -122.8 26.6
593.4 -140.9 27.3
593.4 -147.3 27.2
591.3 -149.6 27.4
591.3 -152.8 27.4
584.3 -162.2 27.7
586.3 -166.2 27.6
582.2 -167.5 27.8
586.2 -172.5 27.6
586.2 -175.6 27.6
582.2 -176.7 27.8
572.1 -189.9 28.4
568.1 -196.7 28.6
566.1 -201.5 28.7
560.0 -209.8 29.1
560.0 -212.7 29.1
560.0 -215.6 29.1
559.9 -224.3 29.0
555.9 -224.7 29.3
549.9 -229.3 29.6
549.9 -235.0 29.6
549.8 -243.5 29.6
538.8 -244.0 30.2
542.8 -249.7 30.0
536.8 -253.5 30.3
536.8 -256.3 30.3
532.7 -258.6 30.6
536.7 -264.5 30.3
528.7 -263.5 30.8
530.7 -267.9 30.7
532.6 -280.3 30.5
530.6 -281.3 30.6
522.6 -285.1 31.1
520.6 -288.6 31.2
526.5 -296.6 30.8
518.5 -294.6 31.3
516.5 -295.3 31.4
514.5 -298.7 31.5
512.5 -309.6 31.6
508.5 -310.7 31.9
508.4 -313.3 31.9
508.4 -318.3 31.9
508.3 -331.0 31.8
501.3 -333.5 32.2
503.3 -345.6 32.1
495.3 -341.6 32.6
482.1 131.9 31.8
486.0 131.0 31.5
657.1 -8.9 20.2
657.0 -16.1 20.1
636.9 -49.5 21.4
636.8 -53.0 21.4
634.8 -56.1 21.5
632.8 -59.2 21.7
631.8 -62.5 21.7
631.8 -66.0 21.7
636.7 -70.4 21.4
631.7 -76.3 21.7
629.7 -79.3 21.8
627.7 -82.3 21.9
625.7 -85.2 22.1
611.5 -108.3 23.0
607.5 -110.4 23.2
609.5 -114.3 23.1
607.5 -116.9 23.2
603.5 -118.9 23.5
591.4 -140.2 24.2
595.3 -144.9 24.0
580.3 -148.1 24.9
584.2 -162.2 24.6
586.2 -169.3 24.5
576.1 -185.9 25.1
578.1 -190.0 25.0
568.1 -193.7 25.6
572.0 -198.9 25.4
568.0 -199.7 25.6
566.0 -201.5 25.8
558.0 -205.6 26.3
565.9 -213.4 25.8
563.9 -218.0 25.9
557.9 -223.1 26.3
555.9 -224.7 26.4
546.8 -232.9 27.0
548.8 -240.0 26.8
549.8 -243.5 26.8
544.7 -251.2 27.1
536.7 -253.5 27.6
538.7 -257.8 27.5
536.7 -264.5 27.6
530.7 -267.8 28.0
528.6 -274.3 28.1
528.6 -277.0 28.1
516.5 -292.8 28.8
518.5 -297.2 28.7
514.5 -303.8 29.0
516.4 -308.3 28.8
510.4 -307.6 29.2
510.4 -315.3 29.2
478.0 135.0 29.8
482.0 134.2 29.5
492.0 128.3 28.7
498.0 127.9 28.3
655.0 -5.1 16.7
653.0 -8.6 16.8
655.0 -12.4 16.7
629.7 -62.1 18.4
627.7 -65.2 18.5
632.7 -69.6 18.2
629.7 -72.4 18.4
613.5 -108.9 19.5
607.5 -110.4 19.9
605.5 -113.0 20.1
607.4 -116.9 19.9
611.4 -121.5 19.6
607.4 -123.5 19.9
605.4 -129.3 20.1
599.3 -140.1 20.5
595.3 -144.9 20.8
595.3 -148.1 20.8
591.3 -149.6 21.1
593.2 -156.8 20.9
586.2 -163.1 21.4
586.1 -169.3 21.4
580.1 -169.6 21.8
582.1 -173.6 21.7
570.1 -182.8 22.5
574.0 -191.0 22.2
566.0 -198.5 22.8
569.9 -206.8 22.5
557.9 -220.1 23.4
551.9 -219.2 23.8
548.7 -242.8 24.0
546.7 -244.2 24.1
540.7 -248.2 24.6
540.7 -256.6 24.6
538.7 -257.8 24.7
538.6 -263.3 24.7
532.6 -277.6 25.1
528.6 -276.9 25.4
524.6 -278.9 25.7
516.5 -285.0 26.3
494.0 131.4 26.2
495.9 127.3 26.0
501.9 126.8 25.6
507.9 123.7 25.1
627.6 -78.9 15.1
613.5 -99.0 16.2
613.4 -108.9 16.2
609.4 -111.0 16.5
613.4 -115.5 16.2
609.4 -117.6 16.5
603.3 -125.4 17.0
605.3 -129.3 16.8
595.3 -132.2 17.6
597.3 -139.3 17.4
593.3 -140.9 17.8
590.2 -142.9 18.0
595.2 -148.1 17.6
593.2 -153.6 17.7
578.2 -159.5 18.9
582.1 -167.5 18.6
584.1 -171.5 18.4
586.1 -175.6 18.3
576.0 -182.9 19.1
570.0 -182.8 19.5
574.0 -187.9 19.2
555.9 -204.5 20.6
559.9 -209.7 20.3
561.9 -213.9 20.2
557.8 -225.9 20.5
546.8 -232.9 21.3
544.7 -240.0 21.5
549.7 -246.3 21.1
542.7 -249.7 21.6
542.6 -258.1 21.6
538.6 -266.1 21.9
534.6 -268.4 22.2
532.6 -269.5 22.4
499.1 -351.0 24.9
497.1 -353.6 25.1
493.1 -358.7 25.4
480.0 133.5 25.0
482.0 131.9 24.8
499.9 128.6 23.3
503.9 124.9 22.9
508.9 121.5 22.5
586.1 -163.1 15.2
584.0 -171.5 15.3
582.0 -173.6 15.5
580.0 -175.7 15.7
579.9 -188.0 15.7
572.0 -186.9 16.4
579.9 -197.2 15.7
555.9 -201.6 17.8
557.8 -211.4 17.6
555.8 -221.8 17.7
549.7 -229.3 18.3
546.7 -241.4 18.5
544.6 -245.6 18.7
548.6 -254.1 18.3
536.6 -250.8 19.4
540.6 -259.3 19.0
506.2 -331.4 21.9
499.2 -336.2 22.5
499.1 -341.2 22.5
493.1 -344.2 23.0
493.0 -358.7 23.0
493.0 -368.3 23.0
553.7 -226.2 15.0
549.6 -243.5 15.4
510.2 -315.2 19.0
505.2 -322.8 19.5
508.1 -333.5 19.2
501.1 -333.5 19.9
505.1 -342.8 19.5
499.1 -346.1 20.0
497.1 -348.7 20.2
522.2 -306.2 15.3
518.2 -307.6 15.7
514.2 -306.4 16.1
510.2 -315.2 16.5
508.2 -323.4 16.7
506.1 -326.3 16.9
505.1 -330.3 17.0
501.1 -331.0 17.4
503.1 -335.7 17.2
